ncols        746
nrows        32
xllcorner    14.3723611112
yllcorner    46.5845833333
cellsize     0.000277777778
NODATA_value -32768
736 735 735 738 740 740 738 734 732 731 731 733 734 735 736 736 733 725 719 714 713 716 718 719 719 719 719 716 713 710 709 709 709 709 707 704 700 697 693 692 693 693 692 690 690 692 693 692 693 694 693 690 688 686 685 684 684 685 686 687 689 688 688 686 683 679 674 671 669 666 664 662 660 656 653 653 654 654 655 656 656 658 662 668 676 681 686 689 691 689 686 685 684 687 691 697 701 703 703 704 705 706 704 703 702 703 703 703 704 704 706 706 706 706 705 704 702 702 703 704 705 705 705 705 706 705 704 703 705 707 707 708 709 711 710 709 712 713 714 714 715 718 723 727 729 730 733 735 733 732 730 729 723 713 703 694 686 676 668 665 663 662 660 656 651 650 652 662 673 684 694 700 705 708 711 712 711 711 712 714 716 716 716 717 724 730 732 730 727 717 713 707 712 713 712 707 701 694 693 690 690 692 689 685 686 681 673 660 663 659 650 641 632 621 565 539 530 513 499 491 475 461 455 454 456 459 465 465 463 460 458 457 458 458 460 462 468 479 491 498 504 510 514 513 513 514 515 515 514 511 509 509 508 507 511 517 527 540 550 556 564 572 583 593 598 605 614 618 623 625 625 629 634 639 641 644 647 649 651 654 657 660 662 661 659 657 654 649 647 646 645 646 648 653 661 667 672 677 681 685 690 698 706 712 717 722 726 731 737 743 748 747 746 745 744 743 744 745 743 741 739 738 738 739 741 742 742 741 739 734 729 724 715 706 698 687 676 662 651 639 626 619 615 611 606 598 587 577 571 565 563 563 564 565 566 566 564 563 561 560 559 559 560 560 562 563 564 566 568 571 575 578 580 582 582 581 579 580 581 581 580 579 580 581 584 587 590 592 592 591 592 595 599 604 609 613 619 627 633 638 640 642 648 654 662 669 677 684 688 692 695 699 707 714 719 725 731 737 738 736 731 727 722 718 716 715 715 716 717 713 710 698 682 661 639 621 607 591 583 570 554 536 520 509 500 484 472 462 454 442 429 418 416 410 403 398 395 394 393 394 394 393 393 393 394 395 395 396 396 397 397 396 396 396 396 395 394 394 393 393 393 394 394 395 394 392 390 390 391 394 395 395 395 394 394 395 396 396 396 396 396 397 397 396 396 395 395 395 394 394 395 396 396 396 396 396 396 396 396 397 397 398 397 396 396 396 396 396 397 397 397 396 395 394 394 395 399 406 412 416 419 422 425 429 432 436 437 436 434 432 431 431 432 433 434 434 434 433 432 433 433 436 438 441 444 451 462 473 482 492 499 507 520 537 556 574 594 612 630 647 660 669 675 679 679 676 671 666 664 664 665 668 670 670 670 669 670 671 671 671 673 675 677 677 672 666 660 660 658 654 653 652 654 659 663 665 656 643 628 615 595 578 569 556 546 532 512 500 496 494 494 496 497 499 501 503 503 501 501 502 503 506 511 516 520 522 523 525 527 529 530 529 528 537 550 564 577 587 597 610 622 634 644 655 664 670 674 678 677 671 660 647 637 630 621 610 605 600 593 588 583 574 565 559 557 557 558 552 540 524 515 509 505 503 504 507 508 506 501 497 495 493 492 492 490 490 489 489 489 489 489 490 490 491 494 499 505 510 513 516 518 519 521 522 523 525 526 529 532 538 544 549 554 557 557 555 554 554 555 557 557 558 560 559 555 550
740 740 739 740 742 742 740 735 732 729 729 729 730 734 736 736 731 723 717 714 714 716 716 715 715 716 716 714 711 708 706 705 704 703 701 698 695 693 690 688 689 692 693 694 696 698 700 698 694 693 693 690 687 685 682 681 681 684 686 684 682 682 680 679 676 674 672 670 669 666 663 660 657 655 655 655 656 657 657 659 661 665 670 677 683 685 690 697 701 702 700 696 694 694 697 701 706 710 711 714 714 713 711 709 708 708 708 708 708 709 710 710 711 711 709 707 707 707 706 707 706 706 707 707 708 708 708 707 706 707 708 710 711 712 712 714 715 718 719 718 719 723 726 729 732 737 739 744 744 742 740 737 731 721 712 704 695 685 677 673 671 671 670 666 660 656 656 659 670 683 695 703 708 711 714 717 717 718 720 720 721 722 724 729 734 738 740 738 734 728 723 721 721 725 726 725 716 711 705 703 699 702 701 698 694 688 685 682 676 673 659 652 643 628 553 550 534 517 499 494 477 463 457 459 461 465 469 468 466 461 459 459 460 462 464 466 472 485 499 512 517 518 516 514 514 516 518 518 516 514 514 513 513 512 514 519 527 537 548 555 560 567 576 583 590 596 602 606 608 611 614 620 627 632 636 641 647 651 657 661 667 672 677 677 675 671 666 662 655 651 649 648 650 654 662 668 675 679 682 687 695 703 710 714 719 725 730 735 742 749 752 755 756 756 755 755 756 757 757 756 755 754 751 749 746 745 744 742 741 739 734 729 725 715 703 688 672 658 647 637 625 616 610 605 599 586 573 567 563 563 561 560 561 562 563 563 562 560 558 557 557 558 559 561 562 564 566 567 570 573 576 579 582 584 585 585 584 583 583 584 584 584 584 585 587 589 593 596 597 598 602 606 610 613 617 623 630 639 647 653 655 655 657 664 674 682 689 696 700 701 703 706 711 715 720 726 732 738 742 741 739 734 728 727 726 725 724 722 720 718 714 706 697 691 658 632 612 597 586 575 555 540 529 517 506 491 479 466 456 449 440 431 428 416 407 400 397 392 391 392 392 393 394 394 394 393 394 395 396 397 397 397 397 397 397 396 395 394 394 393 393 394 395 396 396 394 392 391 392 393 394 395 396 395 395 395 396 397 397 397 397 397 398 398 397 396 395 394 393 394 394 395 396 396 397 397 397 397 396 397 397 397 396 395 395 395 396 396 397 398 398 398 396 395 394 394 399 406 412 415 417 420 424 428 434 436 438 437 435 433 432 432 432 432 433 433 432 432 432 432 433 436 438 443 452 461 471 480 486 491 499 509 524 542 557 576 597 613 629 647 664 673 678 681 681 677 672 667 665 664 665 668 669 670 670 669 669 669 671 674 676 678 679 679 676 671 668 664 662 655 652 654 658 662 668 663 652 643 635 615 592 573 563 554 542 529 515 504 500 496 493 495 496 498 502 504 504 502 500 501 502 505 509 514 519 521 524 526 528 530 531 531 534 539 553 570 580 589 602 615 627 637 647 657 666 675 676 676 673 665 651 636 628 619 607 599 592 586 581 578 572 561 552 549 542 533 531 531 522 514 509 506 504 502 502 503 503 500 497 495 494 493 492 491 491 490 490 489 489 489 490 490 491 494 498 502 507 511 515 516 518 519 520 522 523 523 525 528 533 539 546 554 557 557 555 550 547 546 546 544 543 544 548 553 549 545
741 741 741 742 743 743 741 737 732 729 726 725 728 731 732 730 724 717 713 711 711 713 713 712 711 711 711 710 707 705 703 701 698 696 694 694 693 691 689 691 691 693 696 697 698 700 700 698 696 695 695 694 692 688 684 682 684 687 690 692 690 689 688 685 681 676 673 672 670 666 664 661 658 657 657 657 658 659 660 663 670 678 685 691 693 697 699 704 708 709 708 707 703 701 703 705 709 712 716 719 720 719 716 714 713 713 713 712 712 712 713 714 714 714 714 712 712 713 714 713 712 710 709 711 712 712 711 711 710 713 717 719 720 721 722 722 723 725 725 724 724 723 724 726 728 732 736 742 747 748 747 743 737 731 723 713 703 694 688 684 681 678 676 673 669 665 661 662 671 683 695 704 709 712 717 721 723 724 725 725 726 729 735 740 744 745 745 743 741 735 731 730 733 737 738 738 735 730 724 720 720 722 721 713 701 701 695 693 688 682 671 661 659 652 543 541 527 508 497 492 478 468 464 465 464 466 467 467 465 462 458 457 459 462 465 470 477 491 507 517 521 521 519 518 517 518 519 519 520 519 517 516 514 515 519 524 530 538 544 550 555 561 566 573 578 583 587 592 598 603 607 611 616 623 629 633 643 653 661 669 678 684 684 683 681 677 671 663 654 650 649 649 649 652 660 669 675 679 684 691 700 709 713 717 720 725 732 740 747 753 758 760 761 763 763 761 761 761 763 765 769 769 769 762 756 749 748 746 743 742 738 734 722 711 697 679 666 651 638 628 622 613 604 597 587 577 569 564 563 562 559 558 559 559 560 561 561 560 559 557 557 558 559 560 562 563 565 568 570 572 575 579 582 584 584 583 581 581 583 584 586 588 588 590 592 595 599 602 604 607 611 616 623 628 633 640 646 652 659 665 668 668 670 676 683 692 702 712 718 718 717 717 718 718 720 724 730 737 742 744 742 739 734 730 729 727 724 722 720 716 712 708 704 700 671 641 622 607 594 579 563 549 537 525 512 499 485 470 460 455 449 439 427 417 409 403 397 392 389 390 392 393 394 394 393 393 393 394 396 397 397 396 396 396 396 396 395 393 392 391 392 392 393 393 394 394 394 394 394 395 395 396 396 397 397 397 398 398 398 398 397 397 398 398 399 398 397 395 394 394 394 395 395 396 396 397 397 397 397 397 397 396 395 395 395 395 395 395 395 396 397 396 396 395 394 395 398 404 409 412 413 416 420 426 433 437 437 436 435 433 432 432 432 432 432 432 432 432 433 434 436 438 442 447 457 469 477 483 488 494 501 514 529 547 566 580 595 612 630 648 664 675 682 684 682 678 674 668 663 661 662 663 666 668 670 669 667 669 672 676 680 685 685 682 677 678 672 668 657 652 647 648 652 655 653 653 642 632 623 614 588 575 565 550 536 525 515 508 506 499 495 493 495 498 500 503 503 501 500 500 502 503 506 511 516 520 522 525 528 530 531 533 536 542 554 566 578 591 603 616 629 639 647 656 667 675 675 671 666 659 646 630 618 611 605 594 584 577 574 568 560 552 547 540 530 522 520 513 505 504 502 501 500 500 500 500 499 497 495 494 494 493 491 491 491 491 490 490 490 491 492 493 496 499 501 504 509 513 515 516 516 518 519 520 521 521 524 528 533 540 548 553 554 553 548 543 541 540 538 536 534 534 535 536 537 536
742 743 744 744 744 745 744 740 735 728 722 723 725 727 728 727 724 721 717 715 713 714 715 713 710 709 708 706 705 703 701 699 696 693 692 693 695 695 695 696 698 699 700 701 702 704 704 704 702 701 702 701 698 696 692 688 690 693 694 694 694 693 691 688 682 676 672 670 671 671 668 664 661 660 664 666 666 666 667 670 677 687 695 699 703 704 707 709 710 712 713 712 709 708 707 708 710 714 720 722 723 722 720 718 717 719 718 717 716 716 717 716 716 718 718 719 719 718 719 719 717 717 717 716 716 716 716 715 717 721 723 726 728 730 731 733 735 735 732 729 729 727 725 725 727 730 732 737 744 748 748 744 741 734 725 716 704 698 694 691 689 686 683 680 676 671 667 666 669 683 695 703 711 718 722 725 726 726 726 726 728 732 737 743 747 749 749 749 748 743 740 739 744 750 751 747 743 739 736 731 730 734 731 722 716 711 708 701 698 690 684 674 672 654 540 537 512 503 495 487 478 470 471 467 466 464 464 463 462 459 456 455 456 461 469 476 483 498 514 523 524 524 523 522 521 519 519 521 522 523 523 520 517 516 519 525 530 534 541 549 553 555 556 558 565 572 579 587 593 599 603 607 611 615 622 631 642 653 661 673 682 685 683 682 680 675 668 659 652 651 651 652 653 656 664 671 676 681 686 694 703 710 716 719 721 727 735 745 754 757 759 763 767 769 770 766 762 762 764 768 772 773 771 765 759 754 752 754 754 747 738 720 708 701 688 676 658 643 629 621 618 610 596 587 579 570 568 566 564 562 558 556 556 556 557 558 559 559 557 557 557 558 559 560 561 561 564 568 570 572 574 577 581 583 583 583 582 582 583 585 588 590 593 596 599 602 605 608 611 615 622 632 639 645 652 656 661 666 675 680 680 678 679 683 690 699 711 724 732 735 734 731 730 729 727 727 730 736 741 744 744 740 736 732 728 724 722 721 719 715 713 711 706 694 672 654 633 616 602 588 570 551 537 523 512 503 492 479 467 461 452 440 427 416 407 402 398 392 391 391 392 394 395 395 395 395 395 395 396 397 397 397 396 395 395 395 394 393 391 391 392 392 392 392 392 394 395 395 396 396 396 396 397 398 398 399 398 398 398 397 397 396 397 398 399 400 399 398 396 396 395 395 395 396 396 397 397 397 397 398 397 396 396 395 395 395 394 393 393 394 394 394 393 394 395 395 396 401 405 409 410 412 420 429 434 436 436 435 434 433 432 432 432 433 433 433 434 434 436 437 438 442 446 454 463 473 482 488 494 502 513 527 540 554 570 585 602 621 641 657 667 675 680 682 683 680 677 672 666 662 660 661 662 666 669 671 671 671 673 679 681 687 690 680 672 671 669 654 644 639 638 636 638 636 635 635 630 624 607 596 585 577 560 545 529 521 511 508 504 502 492 491 494 496 500 502 503 501 500 500 502 504 507 512 515 518 520 523 526 529 529 530 531 540 552 564 574 586 597 609 620 630 639 650 662 668 671 666 663 659 646 626 613 609 601 589 580 575 567 560 553 546 541 535 525 519 511 503 498 498 500 500 499 498 498 498 497 496 495 495 494 493 492 491 492 492 491 490 490 491 494 498 501 504 507 510 512 514 515 516 516 517 518 518 518 519 522 528 536 542 546 550 550 546 542 537 533 531 529 528 528 527 526 527 528 529
744 746 747 746 745 745 743 739 734 727 722 722 724 728 730 733 733 730 727 722 719 719 719 718 715 713 711 709 706 704 702 700 699 698 698 702 704 705 707 710 711 712 712 712 712 714 717 719 716 714 709 705 702 700 699 700 700 700 699 698 698 698 694 686 680 677 674 674 677 681 679 674 672 674 678 681 681 678 677 676 679 685 692 700 706 709 711 712 713 714 714 714 713 713 712 713 715 717 720 724 725 725 724 722 722 723 725 725 724 723 721 720 719 720 722 723 724 724 725 724 724 724 724 724 723 723 721 719 719 720 724 728 732 735 738 740 742 743 741 737 735 734 733 731 730 730 730 734 737 741 741 739 736 729 724 715 708 701 697 695 693 691 687 685 682 678 674 673 675 683 693 704 712 719 725 727 728 727 726 725 727 730 735 740 744 747 750 754 756 754 750 749 751 754 754 750 747 745 739 737 733 732 729 723 717 713 710 707 702 696 684 682 676 634 556 537 518 502 494 484 476 470 466 466 465 465 462 462 459 457 455 455 460 469 478 486 497 511 518 521 523 523 524 525 524 522 522 522 524 527 528 528 523 519 521 525 530 536 544 551 556 556 558 561 564 568 574 582 591 596 600 603 608 613 619 631 644 653 662 670 677 679 679 678 678 675 669 661 652 652 653 656 660 663 667 672 676 681 685 691 699 707 715 720 725 729 737 746 752 757 760 762 768 773 773 771 766 763 764 766 767 768 764 761 757 756 752 755 752 744 727 713 705 696 687 671 655 636 624 616 611 602 586 577 568 565 563 564 563 559 556 554 553 553 554 555 556 556 555 556 557 559 560 560 561 562 563 566 570 572 575 578 581 582 584 586 587 586 586 587 590 593 596 599 603 606 609 614 619 625 633 643 652 659 666 673 677 684 693 697 696 692 689 691 695 704 718 732 743 749 751 751 748 744 738 733 735 740 745 751 749 744 738 732 728 725 724 722 721 718 715 711 702 689 674 654 636 621 606 590 569 550 534 521 512 506 498 484 471 461 451 440 425 412 404 400 397 396 393 393 394 395 395 396 397 396 396 395 396 397 397 397 397 395 394 393 393 392 392 392 393 394 393 393 393 395 396 396 397 397 397 397 398 398 399 399 398 397 397 397 397 397 397 398 399 399 399 398 397 396 396 395 395 395 395 396 396 396 396 396 395 395 394 395 395 395 394 393 393 392 392 392 393 394 394 394 395 398 403 406 408 413 422 431 435 435 434 434 433 433 432 432 432 433 434 435 436 437 437 438 441 444 448 455 466 476 484 491 501 511 523 536 549 562 576 591 604 622 641 658 669 674 677 679 680 679 677 674 670 665 663 663 666 668 672 674 674 673 675 680 683 685 689 678 666 664 656 642 632 628 627 623 620 621 618 619 616 606 592 583 576 565 550 533 522 513 505 499 496 490 489 490 493 497 499 501 503 503 502 501 501 505 510 514 516 518 521 523 525 527 528 529 532 539 549 561 571 579 589 602 615 627 636 644 652 659 660 661 659 656 644 627 612 602 594 585 577 569 560 553 545 540 533 525 516 509 505 499 496 497 500 500 500 499 497 496 496 495 494 494 494 494 493 492 492 492 491 490 489 493 496 501 504 507 510 513 514 515 516 516 516 516 517 516 516 518 521 529 537 542 546 545 543 540 536 533 530 525 522 522 521 521 522 523 523 523
744 747 748 746 745 743 742 738 732 725 724 724 728 731 735 738 738 737 732 728 727 725 723 721 721 721 719 717 714 710 708 709 709 712 712 715 719 721 722 723 723 724 724 724 725 727 729 729 728 724 719 713 709 708 706 708 708 706 704 704 704 702 696 688 684 685 689 689 691 693 694 690 687 689 692 692 691 687 683 678 677 679 686 694 701 707 709 710 712 713 713 714 716 717 719 721 721 722 723 725 726 726 726 724 725 727 728 728 728 727 729 729 728 728 727 727 727 728 730 729 728 728 729 729 729 728 726 722 720 723 728 732 736 742 745 745 746 747 746 744 743 743 742 741 739 737 734 730 730 730 730 726 723 721 718 716 711 709 704 699 696 695 692 688 686 684 681 679 680 685 696 704 710 717 722 725 727 726 723 723 724 728 733 738 741 744 748 755 761 760 754 751 754 755 755 753 748 743 739 736 733 729 724 718 715 714 711 707 702 696 687 681 647 574 555 539 523 504 496 484 473 468 465 464 466 466 465 463 463 460 457 459 468 480 489 495 504 515 522 523 523 524 525 526 526 526 525 524 525 527 531 531 529 527 526 528 532 539 546 551 555 559 563 565 567 570 573 580 587 592 595 597 602 610 620 630 642 652 657 663 669 672 673 674 675 674 670 664 657 653 654 659 662 666 669 671 675 680 683 688 695 703 711 718 725 730 736 741 747 752 755 759 765 770 773 772 769 764 762 762 758 754 753 749 747 744 745 744 738 727 717 707 698 687 675 660 642 630 622 614 607 596 581 572 566 563 561 560 559 557 554 553 553 553 553 554 554 555 555 555 556 557 558 559 560 562 563 567 571 575 578 579 580 582 584 587 590 591 592 593 596 598 601 603 607 610 615 620 628 637 648 656 664 671 680 689 700 707 712 713 710 705 701 700 703 710 723 736 746 753 759 764 766 760 754 748 745 750 754 754 752 747 740 734 730 728 726 726 724 722 718 711 701 690 676 656 640 626 613 596 578 557 537 524 517 509 498 485 470 458 448 436 420 410 404 400 397 395 394 394 395 395 396 396 397 396 396 396 397 397 398 398 397 395 393 392 391 391 392 393 393 392 392 392 394 395 396 397 397 397 397 397 398 399 399 399 399 399 399 399 399 398 398 398 398 397 397 396 396 396 396 395 395 394 394 395 396 396 396 395 394 394 394 394 394 394 394 393 393 392 392 393 394 395 395 396 397 400 402 404 407 414 422 430 434 435 435 434 434 432 431 431 432 433 436 437 439 439 439 439 441 444 450 457 468 479 486 494 505 514 524 537 552 565 579 593 607 620 635 651 664 674 677 678 677 675 673 672 671 669 667 667 670 674 676 679 680 682 680 683 685 686 687 678 666 660 645 631 623 617 610 610 609 608 607 600 593 587 579 570 561 550 535 525 519 511 501 497 490 488 487 489 491 495 497 499 502 503 503 503 504 508 512 515 517 519 520 523 525 526 527 527 532 537 545 555 565 575 583 592 607 622 632 641 648 654 656 656 654 650 640 623 606 596 588 581 574 565 555 550 543 533 524 516 508 505 502 499 497 499 500 500 499 497 497 496 495 494 494 495 495 494 494 493 492 491 490 489 489 492 496 500 503 507 510 511 512 514 515 516 516 517 516 516 517 519 525 529 536 541 542 540 537 534 531 529 526 523 519 517 518 518 520 521 520 519
742 745 747 746 745 744 742 739 734 729 727 728 732 738 741 742 742 741 738 736 734 729 726 725 726 726 726 723 721 719 717 719 723 728 729 731 733 734 733 733 733 733 732 730 730 730 731 731 730 727 723 721 719 716 716 715 715 714 713 712 709 705 699 694 692 695 702 707 708 706 703 700 697 695 695 695 693 690 686 681 678 679 685 693 697 701 706 709 711 712 714 716 719 722 725 728 729 730 730 729 729 728 727 728 729 729 729 728 728 730 732 734 735 735 733 730 730 731 732 733 733 732 732 733 733 732 730 726 724 725 728 733 741 748 752 752 753 754 754 753 752 753 753 752 750 748 743 738 732 726 723 719 716 714 713 712 712 710 708 705 701 698 695 692 688 686 684 682 684 688 695 702 709 715 719 721 721 720 718 717 722 727 732 735 739 743 749 757 763 764 759 755 756 759 760 755 747 739 736 734 733 730 722 715 712 713 713 707 700 694 690 673 609 575 561 547 529 512 498 482 472 467 465 466 468 468 466 466 465 462 456 464 474 482 490 500 512 521 527 528 527 527 526 526 526 526 527 527 527 528 529 529 528 527 528 530 533 538 544 549 553 559 563 566 569 572 575 578 582 586 589 592 597 604 618 632 640 646 652 658 661 665 668 672 673 674 670 663 659 657 658 659 662 665 669 670 672 676 682 687 693 701 709 717 724 728 732 737 742 746 750 754 759 765 772 771 769 764 759 756 746 742 738 739 737 737 736 731 723 714 707 701 689 675 660 642 632 625 619 613 602 596 576 570 565 561 559 558 556 555 554 553 553 554 554 553 553 553 555 556 558 558 559 560 561 563 569 574 578 581 582 582 582 583 584 587 591 596 600 604 607 608 608 611 613 616 620 625 632 643 655 664 673 683 694 705 715 725 729 728 725 722 716 713 714 719 728 737 745 752 759 765 769 768 764 760 756 755 755 754 749 744 737 735 732 730 729 726 725 722 717 710 701 692 678 657 643 637 625 606 581 557 542 532 520 508 497 485 473 459 447 435 423 414 409 403 398 396 396 396 396 397 396 396 396 396 397 397 398 398 397 397 396 394 392 391 391 391 392 393 393 392 392 393 394 395 396 397 397 397 397 397 397 398 398 398 399 399 399 398 398 398 397 397 397 396 396 395 396 396 395 395 395 394 395 396 397 398 397 396 395 395 394 394 394 394 393 392 392 392 393 394 395 395 395 397 399 402 403 404 405 409 418 427 432 435 436 436 434 432 431 430 432 434 436 438 440 440 440 440 443 447 452 459 470 479 488 498 509 518 529 542 555 568 584 599 610 621 635 648 661 670 675 677 676 674 671 672 672 673 671 672 673 677 680 683 686 685 687 687 687 687 684 673 665 651 636 622 613 602 599 597 595 596 586 576 573 569 565 557 545 534 525 519 517 512 507 501 498 491 491 490 492 493 494 495 499 502 503 504 507 512 516 519 519 519 521 523 525 525 525 526 529 533 539 547 558 567 577 586 596 609 621 633 646 652 656 653 652 646 637 622 607 597 588 580 574 565 559 550 542 527 516 511 507 506 503 500 499 499 499 499 497 495 494 495 494 493 494 494 494 493 493 492 491 490 489 489 490 490 492 495 499 504 507 509 509 510 513 515 515 516 518 519 523 527 530 535 537 538 536 532 528 525 524 523 522 520 518 516 514 516 518 518 518 519
743 746 748 748 748 745 743 739 733 730 730 733 737 741 745 747 748 747 745 742 739 736 733 732 732 733 730 728 727 727 728 728 732 737 740 742 741 740 739 740 740 739 738 736 735 732 732 732 730 729 726 724 723 723 721 720 722 723 723 722 717 710 705 702 702 706 712 718 718 716 712 705 699 696 694 692 690 687 685 683 681 681 682 688 694 699 706 712 715 716 717 720 723 726 729 731 734 736 737 737 736 735 734 735 737 737 736 734 734 734 737 738 738 738 738 737 736 736 737 737 737 736 735 735 734 734 733 730 727 726 729 735 744 752 756 758 760 762 761 760 760 760 758 757 753 750 748 745 741 734 724 717 713 710 709 709 711 711 709 707 703 698 695 693 690 688 686 685 686 690 697 704 709 711 713 716 717 716 715 716 722 730 735 737 741 744 750 756 763 765 763 760 759 759 758 752 746 737 733 733 735 732 724 715 713 713 710 705 699 691 679 647 599 576 566 550 530 515 498 480 473 467 468 468 469 468 467 467 466 462 461 467 475 482 489 499 510 521 527 530 530 529 528 527 528 530 530 530 530 531 531 532 531 530 530 531 534 538 543 547 553 559 563 567 570 574 577 578 580 584 588 591 598 609 621 631 638 643 647 651 656 660 663 668 673 674 670 666 660 660 662 664 665 667 671 675 678 681 686 687 691 699 709 717 724 727 731 734 738 741 744 748 752 758 764 766 767 764 758 752 744 735 733 730 730 730 727 718 707 702 702 689 680 664 648 636 629 622 614 606 592 587 571 568 563 558 554 554 554 554 554 553 554 555 555 555 554 554 553 555 558 559 562 564 566 570 576 581 584 586 587 585 583 584 585 587 590 598 605 609 611 612 614 616 619 622 627 632 638 648 661 673 684 695 706 718 728 734 739 741 739 736 732 728 727 729 732 736 744 751 756 762 766 768 764 761 757 754 752 749 745 741 738 736 734 730 727 725 722 720 715 710 703 695 681 665 654 644 633 611 582 566 552 531 517 508 496 487 476 464 451 438 426 415 408 402 397 396 396 396 396 397 397 396 396 397 397 397 397 397 397 396 395 394 393 392 392 393 393 392 392 392 392 393 394 395 397 397 397 397 396 396 397 397 397 398 399 399 398 397 396 396 397 398 398 397 396 396 396 396 396 396 395 395 395 396 397 398 398 397 396 395 395 394 394 394 393 392 392 393 393 394 394 394 395 399 401 403 404 404 406 409 416 424 430 433 434 435 434 432 430 429 431 434 437 438 440 442 443 445 448 452 457 466 477 488 497 506 516 526 536 546 557 572 589 602 613 624 639 651 661 668 672 675 678 676 674 674 676 676 677 676 676 679 683 687 687 687 687 688 689 686 680 674 663 647 631 620 605 596 592 589 581 567 563 559 557 553 550 542 532 525 518 514 515 512 508 504 498 496 492 492 492 492 492 493 497 501 504 507 511 516 520 521 522 522 523 524 526 527 528 529 531 535 539 546 554 565 575 585 596 606 617 629 641 650 654 653 650 644 635 621 610 601 591 583 576 569 561 551 539 523 515 509 506 503 501 499 499 499 497 496 495 492 491 491 491 490 490 491 490 489 489 490 489 489 489 489 489 489 490 491 492 497 503 506 507 508 509 513 514 515 517 521 526 531 533 533 533 531 528 524 521 520 517 516 515 516 515 512 511 512 514 514 514 516
744 748 749 749 747 744 742 738 734 732 732 734 739 745 749 752 752 752 751 749 746 744 743 743 741 739 736 733 732 733 733 734 736 740 743 744 744 744 745 744 745 745 744 743 740 737 734 733 731 729 727 727 727 725 725 724 727 729 731 732 730 722 715 712 714 717 724 726 726 723 718 710 702 696 692 690 687 686 686 685 684 683 683 687 692 700 708 714 717 717 719 721 724 726 728 731 735 739 740 741 740 740 741 742 743 743 742 740 739 739 740 741 741 741 740 739 738 738 738 738 738 738 738 736 735 735 734 731 728 727 730 736 743 751 756 759 761 762 763 762 762 760 758 756 754 751 747 744 741 735 728 721 715 710 708 709 709 709 708 707 703 697 695 695 695 695 694 694 693 694 700 704 707 710 712 714 716 716 716 718 725 731 736 739 742 747 753 757 761 765 765 763 760 757 756 754 746 737 733 734 735 733 725 720 717 714 707 701 692 683 657 603 586 578 568 550 529 515 497 478 466 464 464 467 468 467 468 468 466 461 462 468 474 481 488 495 505 517 524 528 529 529 529 530 531 532 532 532 532 532 533 534 534 534 534 534 536 540 544 548 552 556 560 564 568 572 576 578 579 583 588 592 596 609 624 634 641 643 645 648 651 653 656 661 664 667 667 665 664 663 662 664 666 668 671 677 684 687 688 690 695 702 711 721 724 727 730 732 735 738 741 744 749 754 759 762 764 765 757 751 741 733 728 725 724 724 718 705 697 689 682 675 669 654 641 633 628 619 611 598 588 581 571 568 564 559 555 552 552 553 552 554 555 556 558 558 558 557 555 556 559 565 570 573 575 579 582 585 587 589 590 591 590 587 586 586 590 597 604 609 610 612 614 616 620 625 631 637 644 652 663 676 689 702 714 724 733 741 746 748 748 746 742 738 738 739 740 743 745 749 755 761 764 765 762 759 756 753 751 748 746 744 741 739 737 733 728 725 723 720 716 712 709 703 693 679 666 652 633 613 603 590 560 530 517 506 493 486 478 465 451 437 425 412 404 402 398 396 395 395 395 396 397 397 397 398 398 398 397 397 397 396 395 394 394 394 395 395 394 392 393 393 395 395 395 396 396 397 397 396 396 396 397 398 397 397 398 399 399 398 396 396 397 398 398 397 396 395 396 396 396 396 396 396 396 396 396 396 396 396 395 395 394 394 393 393 393 393 393 393 394 394 394 395 396 398 402 403 403 404 406 410 417 424 430 432 433 433 433 431 430 431 433 437 440 441 443 445 447 450 453 456 460 468 482 495 506 515 524 533 542 552 563 579 595 608 620 634 648 660 667 670 674 676 678 680 680 680 682 682 682 680 681 685 690 692 692 692 690 688 687 684 681 675 661 645 632 619 599 589 584 581 566 555 550 551 549 545 538 530 522 519 514 513 513 512 506 502 496 493 492 492 493 492 492 494 498 502 504 508 512 517 521 523 523 524 524 524 525 527 529 531 533 535 540 546 553 563 575 586 593 600 610 620 632 643 647 650 646 642 634 624 612 605 597 585 578 568 556 547 536 524 518 512 507 500 498 498 498 496 495 495 494 491 488 489 488 487 487 487 486 485 486 485 485 486 487 487 487 487 488 488 490 493 498 503 506 507 510 513 516 517 518 521 525 528 530 530 529 525 520 519 518 516 514 510 509 509 508 509 510 511 510 509 510 512
742 746 747 746 744 742 740 738 736 735 736 739 744 749 752 753 754 754 754 754 751 749 748 749 747 747 744 743 741 741 743 744 745 746 747 746 746 746 747 748 748 750 750 748 745 741 737 736 735 733 732 732 733 732 731 732 735 740 745 747 746 741 734 732 733 734 736 736 734 730 727 720 711 705 703 699 694 690 690 689 689 688 688 690 695 701 709 714 716 717 718 720 723 726 727 730 737 742 743 744 743 743 744 745 745 745 746 746 744 742 740 740 739 740 740 739 738 739 738 738 738 738 737 736 735 735 732 728 727 727 728 734 741 748 754 757 758 760 760 762 760 757 755 753 751 749 747 741 735 732 728 724 718 713 709 707 706 706 706 704 700 697 696 697 699 701 704 704 702 701 701 704 707 710 713 715 716 716 718 721 725 731 736 740 744 749 753 756 759 764 767 765 760 758 755 751 744 738 734 733 733 729 723 718 716 709 701 690 680 661 633 605 588 580 568 545 522 507 492 474 466 463 464 466 468 468 471 472 466 462 462 465 472 479 487 499 512 522 527 528 528 530 532 532 532 532 531 531 532 533 534 535 535 533 532 536 541 543 546 550 553 557 561 565 569 574 577 579 583 586 591 595 603 615 628 637 643 647 648 650 652 653 653 654 657 659 659 661 663 663 662 661 662 666 673 679 684 689 693 696 703 710 716 722 725 726 727 728 732 737 741 745 748 753 757 760 759 758 753 748 738 729 725 722 718 715 705 700 687 677 667 663 658 645 636 630 619 616 599 588 581 576 569 567 562 561 555 552 553 553 553 553 554 556 558 561 562 564 565 568 572 576 580 584 587 588 588 589 591 592 594 594 595 594 590 589 591 595 604 608 611 613 615 617 620 625 634 643 650 656 664 675 689 704 717 727 736 741 748 752 753 753 753 753 750 748 747 746 746 749 752 757 760 760 759 756 753 753 753 753 753 752 750 746 741 740 736 733 731 728 724 721 713 709 706 695 682 666 651 642 601 576 562 526 512 499 489 482 473 462 450 436 420 407 403 402 400 397 394 394 395 396 397 397 397 397 397 397 397 396 396 395 395 394 394 395 395 393 392 392 394 395 396 397 397 396 396 396 396 396 396 397 399 399 398 397 397 397 398 398 397 397 398 398 398 397 396 395 395 396 397 397 398 398 397 397 396 396 396 396 395 394 393 393 393 393 393 393 394 395 396 397 397 397 397 398 399 401 403 405 410 416 422 426 430 433 434 434 433 432 432 434 439 443 444 444 445 446 448 451 454 458 466 474 484 496 509 520 529 538 548 557 570 584 600 617 634 650 662 671 676 678 680 681 682 684 685 687 688 689 688 685 685 691 696 699 698 695 692 686 682 680 672 665 655 646 627 614 595 583 578 573 567 556 550 548 544 538 529 521 517 516 515 515 515 514 511 507 501 494 492 494 495 495 495 496 499 502 505 507 511 516 520 523 524 524 524 523 524 527 530 533 535 538 541 545 551 561 569 577 584 590 598 609 623 634 643 645 645 642 636 628 618 610 594 584 575 564 553 545 535 527 522 517 507 502 496 497 495 493 492 491 490 489 488 486 485 484 485 485 485 484 483 482 482 483 483 483 483 484 486 486 487 490 495 499 503 506 510 515 518 520 520 520 522 525 526 526 524 519 516 514 512 510 508 507 505 505 505 506 507 510 509 508 509 512
740 742 743 742 740 739 739 738 739 741 742 744 747 751 753 753 754 754 754 755 754 752 751 750 751 752 752 751 751 752 753 755 756 755 752 749 746 747 749 751 752 754 756 755 751 746 740 736 735 736 735 737 739 740 740 740 745 752 757 759 758 754 751 751 753 752 749 745 741 738 734 729 721 716 716 713 708 703 701 699 696 693 691 691 694 700 708 713 717 718 719 722 724 725 729 735 741 746 748 747 746 746 747 747 747 748 749 751 751 749 746 741 740 739 739 739 739 738 737 736 735 735 734 734 733 733 730 726 725 726 727 730 737 745 750 752 751 753 757 760 759 755 751 749 748 745 742 738 734 731 729 725 722 718 712 707 705 705 704 702 700 697 695 699 703 709 713 710 708 708 709 710 713 717 718 718 717 718 719 721 724 729 734 738 742 747 751 755 759 764 766 765 765 763 756 751 747 742 738 735 729 725 720 716 708 703 694 680 663 644 620 601 590 577 562 541 515 500 488 479 472 468 468 470 471 474 478 479 472 465 463 467 470 478 488 498 509 519 528 528 528 529 530 531 531 532 532 532 533 534 535 535 534 533 534 536 542 548 552 557 565 570 571 573 576 578 581 584 588 594 602 610 619 626 633 641 646 649 650 651 652 652 651 651 652 654 654 655 658 659 661 662 662 665 671 679 685 691 697 703 709 713 717 720 722 723 723 725 728 735 742 745 749 754 759 757 756 752 748 745 737 727 723 721 714 705 692 686 676 664 657 654 648 641 632 619 609 601 589 582 577 576 568 559 558 558 558 558 556 556 556 554 554 555 558 563 567 573 577 581 582 583 585 589 591 593 594 595 595 594 593 594 596 597 597 595 595 599 605 611 615 617 618 620 622 628 637 647 655 662 669 679 694 707 718 727 734 740 745 749 751 752 754 758 760 756 751 750 748 747 749 752 754 755 752 751 751 753 754 755 758 761 760 759 754 750 747 744 741 740 737 732 723 716 713 708 694 684 674 656 610 570 550 527 502 493 484 474 463 459 450 434 420 410 401 399 397 393 393 394 395 395 396 397 397 396 396 396 395 395 395 395 395 395 395 394 392 390 390 391 394 395 397 397 397 398 398 398 398 398 398 398 399 398 397 396 395 396 396 397 397 398 399 399 398 397 396 396 396 397 398 398 398 398 397 396 396 396 395 395 394 393 393 393 394 395 395 395 395 396 398 399 400 400 399 399 399 401 404 409 416 423 428 431 433 433 434 434 434 432 433 437 441 444 445 445 446 447 449 452 457 464 474 484 492 500 509 521 533 544 553 564 577 593 609 625 642 657 670 680 687 688 689 689 691 692 693 695 697 698 697 693 691 693 700 703 701 695 691 681 675 666 656 649 643 633 614 599 586 579 573 569 565 556 545 542 536 525 521 519 516 516 516 517 516 515 514 513 505 498 496 497 496 497 497 498 501 505 507 509 512 518 521 523 524 524 523 523 524 527 531 534 537 538 539 545 552 557 563 571 577 583 590 602 615 626 635 640 642 637 632 626 617 605 590 580 570 559 550 543 535 530 526 521 513 504 499 496 493 490 489 488 487 486 485 484 483 482 482 483 483 483 482 481 481 481 480 480 481 482 483 484 485 488 492 495 499 503 509 513 516 517 518 518 518 519 521 520 518 514 510 507 506 506 505 505 504 504 504 505 506 507 508 509 509 511
738 739 739 739 739 738 739 741 744 746 748 748 749 753 756 756 756 756 758 759 760 759 757 757 757 760 761 761 761 762 763 762 762 760 756 750 748 749 753 756 757 759 761 762 758 754 747 743 739 737 741 744 748 749 750 749 753 758 761 762 762 761 760 762 762 760 757 754 751 746 743 739 734 730 728 725 720 714 709 705 700 698 694 693 693 698 705 712 717 720 722 724 727 732 737 743 747 750 752 752 752 751 751 750 750 750 753 756 758 757 753 749 745 741 738 737 738 737 735 734 732 731 730 728 728 728 725 724 725 725 726 729 735 741 746 747 747 749 755 761 765 761 755 753 748 744 740 736 732 728 726 724 719 715 711 709 710 711 710 707 701 697 697 698 706 714 716 714 714 715 718 721 724 727 728 725 723 723 724 724 726 729 733 737 740 744 749 754 759 764 767 766 766 769 766 761 757 749 743 737 731 725 720 716 709 703 691 672 650 632 618 603 589 574 557 538 520 506 494 483 477 474 471 471 474 477 481 480 473 469 468 470 474 479 488 499 509 517 523 528 529 529 530 531 533 534 534 534 534 535 535 534 534 533 534 538 544 550 558 565 571 575 577 579 583 588 592 596 601 607 616 624 631 637 643 647 650 653 654 654 653 652 651 652 653 652 650 650 651 654 657 659 661 666 674 682 690 700 708 714 718 718 718 717 716 715 715 718 723 729 736 743 749 753 755 755 752 749 746 743 735 727 723 720 711 697 685 675 663 654 648 645 641 634 624 611 602 592 585 579 579 575 567 559 553 558 560 560 560 558 557 557 556 556 559 565 571 579 584 588 590 591 592 593 595 596 597 597 596 595 594 595 597 600 601 603 603 606 610 615 620 623 625 629 632 637 643 650 657 666 676 690 703 713 721 729 734 739 742 745 746 746 749 753 758 757 755 752 749 745 744 745 746 747 748 749 753 757 758 759 760 765 769 768 767 765 760 758 753 748 747 744 736 728 722 719 710 697 686 646 587 578 561 537 513 490 482 470 460 455 445 438 431 416 405 397 394 393 394 396 395 394 395 396 396 396 396 395 394 394 394 395 395 395 394 392 390 390 392 394 396 397 397 397 398 399 399 399 400 399 398 398 398 397 397 396 396 396 396 397 397 398 398 398 398 398 397 396 396 396 396 397 397 397 397 396 396 395 394 394 393 393 394 394 395 396 396 397 397 398 399 400 401 401 400 399 400 404 409 414 419 425 431 433 434 434 434 433 433 433 434 437 440 444 445 446 447 449 452 455 460 468 477 485 495 503 510 521 533 545 555 566 577 596 616 630 643 660 678 689 696 698 699 700 701 702 701 702 702 703 702 699 694 694 696 700 698 692 681 672 661 651 641 634 624 611 591 580 573 569 565 562 557 545 534 531 524 518 515 516 515 515 516 516 515 515 514 513 506 500 497 496 496 497 498 500 502 507 511 513 516 520 523 523 523 522 521 522 523 527 531 534 535 536 538 543 548 553 558 564 571 579 587 599 610 618 625 631 632 632 629 621 612 599 587 577 566 556 549 541 535 531 529 525 514 504 501 497 493 490 488 487 485 484 484 483 482 481 481 481 482 482 482 481 481 480 480 480 480 481 481 482 483 485 488 490 493 499 504 507 509 513 515 516 517 516 515 513 509 508 506 506 505 505 505 504 503 503 503 504 504 505 505 506 508 509
739 739 739 739 739 738 739 742 745 750 751 751 752 754 756 757 758 760 762 764 766 767 768 769 769 769 771 771 772 771 771 767 763 760 756 751 748 752 755 758 760 762 765 765 762 759 756 748 745 746 748 753 757 757 758 761 761 762 761 762 762 763 763 764 766 765 763 761 758 756 752 751 745 741 737 732 726 719 714 709 706 702 699 695 696 699 705 711 716 723 728 731 734 739 745 749 752 754 755 757 758 759 760 759 758 757 757 759 760 760 758 755 751 746 743 741 739 738 738 738 736 733 730 726 724 723 726 728 727 725 726 729 734 740 744 746 746 748 753 760 766 768 764 757 751 745 737 733 730 727 724 721 717 713 710 709 711 715 715 714 709 704 701 702 707 712 716 717 717 718 721 724 728 730 730 727 725 725 726 728 729 731 735 738 740 744 749 755 760 765 766 766 766 766 767 765 760 757 750 740 733 728 722 714 707 696 679 656 639 630 614 599 585 568 552 536 521 512 498 483 478 475 472 470 469 474 475 475 474 473 474 476 479 484 493 504 512 520 526 531 533 535 536 537 537 538 537 536 534 534 534 534 534 533 533 536 542 550 559 566 571 575 579 586 593 601 608 611 613 619 626 632 637 643 648 651 654 657 659 660 661 658 655 653 652 651 649 647 649 651 654 655 659 665 676 689 700 707 714 721 721 720 718 714 710 707 707 709 717 725 732 739 746 752 753 752 750 747 744 738 731 726 721 716 707 693 682 672 661 650 643 636 630 625 615 604 595 585 578 577 575 573 569 562 559 559 561 561 560 559 559 559 559 560 564 572 579 583 587 592 596 598 600 601 602 602 602 602 601 601 600 600 601 601 603 605 608 611 615 619 624 629 633 637 642 647 652 657 665 675 687 701 713 722 728 734 737 739 739 738 738 739 739 742 747 747 748 747 744 741 740 740 739 742 747 753 759 762 763 765 763 768 771 774 774 772 772 773 767 760 755 754 748 742 733 731 725 718 679 576 576 570 562 544 513 490 478 471 463 455 448 438 431 417 401 397 394 394 395 397 396 394 394 395 396 396 395 395 394 393 393 394 394 393 392 392 392 392 394 396 397 398 398 398 398 399 399 400 400 399 398 397 398 398 398 397 396 396 396 396 396 396 396 396 396 396 396 396 396 395 395 395 396 398 398 397 396 395 394 393 393 394 394 395 396 397 398 399 400 401 400 401 401 401 401 400 402 406 414 419 422 426 429 431 432 432 432 432 432 433 435 437 439 442 445 446 447 449 451 455 461 469 478 488 496 506 516 524 534 546 559 568 582 599 615 631 646 661 678 695 700 703 704 706 706 707 706 706 707 709 709 705 698 695 696 696 691 683 673 663 649 636 628 621 606 588 577 567 563 559 557 555 553 541 532 527 517 513 511 511 511 511 513 514 514 511 509 506 501 500 498 497 496 497 498 501 505 508 512 516 518 521 522 523 522 521 521 521 523 525 529 533 534 536 538 542 545 548 550 555 563 572 582 592 602 611 619 626 628 628 622 615 604 593 583 574 563 555 547 540 535 532 530 525 513 506 502 499 495 492 488 487 485 484 484 484 483 482 481 481 481 482 482 482 481 481 480 480 479 480 480 481 482 483 485 486 488 493 496 499 502 506 509 512 514 516 512 508 504 503 503 503 503 504 504 504 503 502 503 504 505 505 504 505 506 507
741 740 740 739 738 738 740 743 748 751 752 753 753 755 757 759 760 761 764 768 771 772 774 777 777 776 776 777 778 778 775 770 765 759 754 752 753 754 757 761 764 767 769 769 767 763 760 758 756 758 759 763 765 763 763 762 763 761 759 760 761 762 762 763 765 766 765 763 762 759 758 755 750 743 739 735 730 723 717 713 710 707 703 700 699 701 706 712 721 728 731 735 740 744 749 754 757 759 761 762 763 764 764 765 764 764 765 764 764 764 764 762 759 755 751 747 742 740 740 740 740 740 738 735 732 733 735 736 737 735 732 733 737 740 743 744 745 748 754 761 765 764 759 755 749 742 734 731 728 726 723 720 717 715 713 712 714 716 718 717 714 713 708 705 705 710 714 717 718 719 719 722 724 725 726 725 725 725 726 729 730 732 735 739 742 746 751 756 760 763 764 765 766 766 764 761 759 756 752 745 735 729 722 715 707 688 664 646 636 619 602 592 578 561 547 539 525 506 492 483 480 480 476 471 469 470 472 476 478 478 481 485 489 494 500 509 516 523 530 535 539 538 538 538 539 539 539 537 535 534 534 534 535 535 535 537 543 550 558 565 572 579 586 595 606 615 619 622 626 631 635 639 645 650 654 656 659 663 666 669 668 667 662 656 652 648 646 645 646 648 650 651 656 664 678 691 699 707 714 719 722 721 716 711 705 701 701 706 714 722 732 739 744 748 752 751 751 747 743 736 729 723 717 712 702 693 683 672 661 650 641 630 623 616 608 602 592 580 575 574 574 571 570 567 562 561 560 560 560 560 561 563 562 564 570 576 582 585 587 591 595 601 604 607 608 609 609 609 608 608 609 608 607 607 607 609 613 617 620 625 629 634 638 643 650 656 663 670 679 688 701 715 724 730 735 738 739 738 734 733 731 731 731 731 734 736 739 739 739 737 737 736 736 739 748 758 766 768 772 773 771 769 772 773 774 773 777 777 777 768 765 759 753 751 745 738 729 717 690 581 574 565 552 527 509 490 473 466 463 456 444 435 425 410 397 395 395 393 394 395 395 394 395 395 396 395 395 394 393 393 393 394 394 392 391 391 393 394 395 396 397 398 399 399 399 399 400 400 399 398 397 396 397 398 398 398 397 396 396 396 396 396 396 396 396 396 396 396 395 394 394 394 395 396 397 397 396 395 395 394 393 394 395 396 397 399 400 402 403 402 401 401 402 402 402 403 405 410 417 423 425 427 428 429 430 430 431 431 432 433 434 437 439 440 442 443 445 448 450 454 462 473 483 490 500 510 519 529 539 550 563 576 589 602 616 632 651 669 681 690 697 702 707 711 712 713 714 713 714 713 713 708 700 696 696 691 683 672 662 652 638 624 615 602 589 579 566 555 551 550 547 547 546 546 541 533 523 516 512 508 507 508 510 511 510 506 503 500 500 500 498 497 496 496 497 501 504 508 513 517 519 521 522 522 523 523 522 522 522 522 523 525 527 530 537 541 543 545 545 548 557 567 578 591 602 610 615 621 619 613 608 602 596 587 579 571 564 556 548 541 536 533 528 523 516 511 507 504 500 495 490 487 485 483 484 485 485 484 483 482 481 481 481 481 480 480 480 479 479 479 480 481 481 482 483 484 484 485 490 492 496 500 504 507 511 512 511 505 503 502 502 502 502 502 502 503 503 503 504 505 505 505 505 505 506 507
740 740 739 738 738 738 739 744 749 752 753 752 753 756 759 760 761 762 765 769 772 774 777 780 781 782 782 783 784 783 780 776 770 763 757 753 754 757 760 764 769 771 771 771 768 767 766 765 764 764 765 767 767 765 762 760 758 758 757 758 759 760 761 761 763 763 763 762 761 760 759 756 751 745 739 735 730 724 718 714 713 711 707 703 702 705 709 717 723 729 733 736 741 746 750 754 758 761 763 766 767 768 770 769 770 771 771 769 769 769 768 768 765 764 760 756 750 745 742 742 742 742 743 744 743 742 744 745 746 744 742 741 741 738 739 741 742 745 752 756 758 757 754 749 743 738 733 731 729 726 723 719 716 715 714 714 715 717 718 718 717 715 713 711 711 714 717 718 718 717 717 718 719 721 721 722 724 726 727 728 730 733 737 740 743 747 753 758 760 762 762 763 766 767 766 762 757 753 749 743 735 729 723 717 710 692 663 646 627 610 596 585 565 550 548 539 517 501 489 482 483 486 482 477 473 473 475 476 478 481 483 492 499 502 507 512 518 524 530 536 539 540 541 541 540 541 542 541 539 536 534 534 535 536 538 541 545 550 557 565 573 580 591 604 618 627 633 638 642 645 647 649 653 658 662 665 667 669 670 672 672 672 670 667 659 651 646 644 644 644 646 649 653 663 674 685 696 705 712 719 724 721 717 709 701 699 699 707 714 721 730 738 745 750 752 751 748 744 739 735 728 723 716 708 700 692 682 671 661 651 640 629 621 612 603 595 588 581 577 575 573 570 569 568 564 562 561 560 560 561 563 564 566 569 575 581 584 586 587 590 597 603 608 611 614 614 614 614 615 616 616 615 613 611 609 611 614 618 622 628 634 638 642 647 654 662 670 680 690 700 714 725 733 735 738 739 738 736 734 730 727 725 724 724 724 726 730 735 736 736 735 736 738 743 753 763 770 774 775 776 771 768 767 767 767 767 770 772 770 770 764 759 755 755 755 742 728 713 667 585 575 564 544 524 504 487 467 460 452 448 435 429 417 404 396 395 397 396 395 396 397 397 397 397 396 396 395 394 393 393 394 394 392 390 390 392 394 395 396 397 397 398 398 399 399 399 400 399 398 397 395 395 396 397 398 398 398 398 398 397 396 396 397 397 397 398 398 397 396 394 393 393 394 395 395 396 396 396 396 395 395 396 397 398 399 401 402 403 402 402 401 401 403 404 404 405 411 417 422 424 426 427 428 428 429 430 432 432 432 434 436 438 439 441 443 444 447 449 452 456 465 476 485 492 502 514 526 537 547 558 571 583 597 614 630 643 656 670 684 691 698 703 709 714 719 723 722 720 717 714 708 702 698 692 686 679 669 659 649 638 625 614 602 590 579 566 552 544 540 538 536 534 536 538 540 539 530 524 519 514 510 508 509 510 510 508 503 501 500 499 499 496 495 495 498 501 505 509 514 518 519 519 522 524 525 525 524 522 520 519 518 518 520 526 532 537 539 540 541 546 554 566 580 593 603 608 611 610 606 602 598 594 587 580 573 567 561 555 547 541 536 532 529 525 521 514 509 506 502 498 493 489 485 482 483 484 485 485 484 483 482 481 481 481 480 480 480 480 479 480 480 481 481 482 482 483 483 484 485 488 491 496 501 504 507 509 509 507 505 505 503 502 500 500 500 501 503 504 505 505 506 506 506 506 506 506
739 739 739 738 739 740 743 747 752 754 754 753 754 755 757 759 760 761 763 766 769 772 775 778 781 782 784 785 788 786 782 777 775 768 760 756 755 757 761 767 771 772 771 769 767 767 767 767 765 765 765 765 764 761 758 755 755 754 755 755 756 757 758 757 758 760 760 760 761 761 760 757 751 745 739 734 729 725 721 716 713 713 711 708 708 710 714 720 725 728 733 739 744 747 751 754 757 759 763 766 770 773 775 778 778 776 774 773 772 772 772 770 770 768 767 764 759 755 752 750 748 746 746 747 747 748 748 748 748 747 745 744 741 739 739 740 741 743 745 749 749 750 749 746 739 734 733 731 728 726 724 720 717 715 714 713 713 715 716 717 717 716 715 714 715 718 718 718 717 717 718 719 719 718 718 718 721 724 725 728 730 735 739 742 746 750 755 760 761 762 762 764 769 769 767 762 757 752 749 743 734 726 720 715 703 684 657 633 619 605 587 572 553 542 540 530 513 499 490 484 483 485 485 479 474 474 476 478 479 482 489 494 500 507 513 518 522 526 531 535 538 540 543 545 546 546 547 547 543 539 535 534 536 538 541 543 546 552 559 567 575 583 593 612 628 639 646 652 656 660 662 665 668 671 673 673 673 674 674 674 675 675 676 674 670 662 654 649 646 645 646 649 654 661 669 679 690 701 710 718 723 722 716 709 701 696 697 702 710 719 729 740 748 751 750 747 744 742 741 739 733 725 714 704 694 686 680 670 661 653 647 634 622 610 598 590 584 580 576 574 570 569 568 567 566 564 563 563 563 565 565 568 570 575 580 585 590 591 592 595 601 607 612 617 623 626 626 624 623 623 623 622 620 615 612 611 614 617 621 627 635 639 644 652 660 667 674 683 694 703 715 728 736 738 738 737 735 733 731 727 724 721 719 718 719 720 722 726 732 734 736 738 741 746 756 764 771 773 773 771 767 763 762 759 759 760 760 759 761 763 760 755 752 751 753 743 722 709 641 585 569 564 540 525 500 483 469 458 451 443 436 424 411 401 397 397 397 397 397 397 398 398 397 397 396 396 395 394 394 395 396 394 391 391 392 394 395 397 398 398 398 398 398 398 399 399 400 399 398 396 395 395 395 396 397 397 398 398 398 397 396 396 395 396 397 398 398 397 395 393 393 393 394 394 395 396 396 396 396 397 397 398 399 401 401 402 403 403 403 402 401 402 403 404 407 411 418 424 426 426 427 427 428 428 429 431 432 434 435 436 438 440 442 443 445 448 450 452 455 461 468 477 486 496 506 517 529 543 557 568 582 601 618 631 643 657 669 679 688 695 701 708 713 719 723 725 725 723 721 715 703 695 688 680 673 663 654 645 635 623 616 607 595 583 573 559 545 539 538 535 530 527 527 529 531 531 530 527 522 517 512 509 509 509 510 508 506 504 502 501 499 497 496 498 502 505 507 510 513 515 517 520 524 525 526 526 524 521 518 517 516 516 518 523 530 535 537 537 537 542 553 567 582 596 603 607 608 607 602 598 595 587 578 570 564 560 556 550 545 542 538 535 531 529 526 520 512 507 503 500 496 491 486 482 482 483 484 484 483 482 482 481 481 481 481 481 481 480 480 480 481 481 481 482 482 483 483 484 486 489 491 495 498 500 502 505 507 509 511 509 508 503 500 499 499 501 502 504 505 506 507 507 507 507 507 507
738 738 738 740 741 742 746 751 755 757 756 755 755 755 756 757 758 759 759 760 764 767 770 772 775 779 782 784 785 784 779 774 772 768 765 761 759 759 764 768 770 770 768 765 764 764 764 763 762 761 761 759 757 755 752 751 751 752 753 754 755 756 756 755 755 756 758 761 763 763 762 759 753 746 739 734 729 725 721 717 715 715 715 713 713 714 718 722 725 729 733 738 743 747 751 754 756 758 761 767 772 777 780 781 782 780 778 777 778 777 776 776 776 776 772 769 765 761 758 757 756 754 750 749 749 749 749 748 748 748 746 744 743 742 742 743 744 744 744 744 744 744 742 739 735 731 726 725 725 726 725 723 720 716 715 716 715 715 715 715 715 715 714 715 715 716 717 718 718 718 719 721 724 721 719 720 722 723 727 731 738 741 743 746 750 753 756 758 760 760 762 765 769 767 763 759 753 750 747 743 732 725 721 712 697 673 645 624 614 596 577 561 545 532 527 522 511 499 489 483 480 479 477 471 470 471 475 479 483 487 491 496 505 512 518 522 526 532 536 539 541 545 548 550 549 548 547 549 549 543 538 537 539 541 544 550 556 561 566 571 578 590 605 620 632 644 655 662 668 672 676 679 681 682 682 679 678 678 678 678 678 678 677 676 673 669 664 658 653 649 648 648 652 658 668 677 685 694 704 711 713 714 712 707 699 694 693 697 704 713 722 733 743 747 745 742 740 740 742 743 739 726 714 702 692 681 674 668 660 654 645 635 621 609 599 591 584 577 574 571 569 568 568 568 568 567 566 566 568 567 569 574 578 581 585 591 595 599 601 606 613 623 630 636 642 644 642 637 635 632 631 629 626 623 619 618 619 622 626 631 637 642 646 653 662 670 675 682 695 708 721 732 738 740 739 737 733 730 727 722 719 717 716 714 714 714 714 718 725 732 736 739 744 749 755 761 765 767 766 764 760 759 756 756 753 752 749 750 751 753 754 750 749 749 747 746 694 635 609 568 559 550 533 511 496 482 472 462 453 446 434 420 404 401 399 400 400 399 398 399 400 399 397 396 395 395 395 394 394 394 394 393 393 393 395 396 397 397 397 397 397 397 398 398 398 399 400 400 399 397 396 395 395 395 396 396 397 397 397 396 394 394 393 393 394 395 395 394 393 392 392 393 393 394 396 396 396 396 397 397 398 400 402 402 402 402 402 403 402 402 401 402 403 405 408 415 422 427 429 429 429 429 429 429 429 431 433 434 435 436 439 441 444 446 447 449 451 453 456 461 467 477 487 498 508 520 534 550 562 575 592 610 622 634 651 667 680 691 695 699 704 710 717 721 722 723 722 721 719 709 693 682 674 664 654 646 639 633 624 614 607 597 587 578 568 553 540 537 540 536 532 527 523 523 524 525 523 522 519 515 512 510 508 508 507 507 506 505 503 500 498 497 497 501 506 509 511 511 512 514 518 521 524 526 526 524 522 519 517 516 515 516 518 522 526 530 534 536 538 544 556 571 586 596 600 603 603 602 599 595 589 580 571 563 558 555 550 546 545 544 541 536 533 532 530 526 520 511 505 501 498 494 489 486 484 483 484 483 483 482 482 481 481 481 482 482 482 481 481 481 481 480 480 481 481 481 482 484 486 489 491 493 495 496 496 498 503 507 510 511 508 504 499 497 498 499 501 503 505 506 508 508 508 508 507 507
737 737 738 740 742 742 746 751 756 757 758 757 757 756 756 756 756 756 757 758 761 763 765 768 770 774 777 780 780 778 775 770 769 767 765 763 761 761 763 766 767 765 763 759 758 758 757 757 756 756 755 754 752 752 751 751 751 752 753 754 755 756 756 755 755 756 758 760 762 762 762 760 755 749 742 736 730 726 723 721 720 720 719 719 719 720 720 724 729 732 736 741 745 748 751 753 756 759 763 769 776 781 783 784 785 787 790 790 789 786 784 782 781 781 778 775 770 765 761 759 758 756 754 751 750 750 749 749 750 749 747 745 744 744 744 745 745 745 744 743 742 741 741 738 733 727 722 721 723 726 727 723 719 718 719 719 718 717 716 716 716 716 716 716 717 717 717 718 718 720 720 722 725 724 723 723 724 725 728 735 741 744 747 750 753 756 759 762 762 762 763 767 768 762 757 752 751 745 739 733 729 723 715 707 685 665 634 612 599 582 563 547 530 525 517 513 508 500 492 482 478 475 470 472 470 472 476 480 484 489 494 500 507 516 525 528 533 539 544 547 549 550 552 553 553 551 550 551 551 548 545 543 544 548 553 558 563 567 569 574 582 596 613 627 640 651 660 668 676 682 686 688 691 693 691 688 685 684 683 683 681 679 677 674 672 670 667 662 656 654 651 649 651 658 667 675 679 683 687 695 699 699 700 698 694 689 689 691 699 707 714 725 734 738 738 736 736 740 743 745 742 732 720 709 699 686 674 663 656 646 636 627 614 606 598 591 583 578 576 574 571 570 569 569 569 569 569 567 569 572 574 578 584 590 594 599 606 614 621 629 638 646 655 659 660 660 655 649 642 639 637 635 632 628 625 624 625 626 629 635 640 644 649 656 664 671 677 684 696 711 722 733 739 742 741 739 733 728 723 717 715 713 711 711 711 711 711 716 721 729 734 739 744 749 754 757 760 762 763 761 758 756 755 754 751 748 746 745 745 745 744 744 746 745 743 724 634 608 579 561 549 539 523 507 493 481 475 468 455 440 428 411 397 396 400 401 401 400 400 400 401 401 398 396 394 392 392 393 393 393 392 393 394 395 397 397 397 397 397 397 397 397 397 397 397 397 398 399 398 398 397 396 395 395 395 395 396 396 395 393 392 391 391 391 392 392 392 391 391 390 391 391 392 393 395 396 396 397 398 399 401 403 405 404 403 402 402 402 401 401 402 403 404 407 412 417 422 426 428 430 431 432 432 432 432 433 434 433 434 435 438 442 445 448 449 450 451 453 458 464 472 481 491 500 510 521 539 556 566 579 598 615 625 638 654 671 685 695 699 699 703 709 715 718 720 721 719 717 714 703 685 671 663 649 638 630 625 619 611 603 597 586 576 568 557 545 532 527 530 534 532 529 525 523 522 522 521 519 517 515 513 511 509 507 506 506 506 505 501 497 495 495 499 503 509 513 514 514 514 516 518 520 522 523 524 523 519 516 515 514 515 516 518 520 522 525 530 534 538 543 553 569 582 590 593 591 591 593 591 586 580 573 565 559 555 553 549 547 545 544 541 538 534 532 530 528 522 513 505 501 499 496 493 489 486 485 484 483 483 483 483 482 481 481 482 482 481 481 481 480 480 479 478 478 479 480 481 482 485 487 490 491 492 493 493 495 498 503 507 508 506 501 498 497 498 499 501 503 504 506 508 508 508 508 508 508
743 742 739 740 741 743 744 749 752 754 756 757 758 757 756 755 755 755 756 757 758 760 761 763 766 768 772 774 774 773 771 770 768 766 763 761 760 761 762 762 762 761 758 756 755 755 755 754 753 753 753 752 752 751 751 751 751 752 754 755 757 757 756 755 755 755 755 756 757 759 760 759 757 750 743 737 733 729 727 726 725 725 724 722 721 721 723 728 734 738 741 743 747 750 753 756 759 762 766 771 777 783 787 790 793 798 801 801 798 794 789 787 785 782 780 778 773 768 765 762 761 760 757 756 755 754 754 755 756 756 752 749 746 746 744 745 745 745 744 744 743 743 743 741 738 733 727 726 727 728 726 721 716 716 718 719 720 719 718 719 719 719 720 721 721 720 720 720 721 722 724 726 727 728 727 725 726 728 730 734 740 745 748 751 754 756 760 764 768 768 771 771 770 763 756 756 753 742 730 725 719 711 698 677 664 641 621 599 584 570 550 531 521 517 515 510 508 502 489 484 485 482 482 480 477 476 479 484 489 494 501 508 514 522 528 532 537 542 547 550 551 551 552 553 554 554 555 556 556 555 553 552 554 557 561 565 568 570 572 576 586 600 612 625 641 656 665 673 682 690 693 695 696 697 697 695 694 692 689 687 684 681 674 669 665 664 663 661 660 656 653 653 654 661 668 670 671 673 675 676 679 681 683 683 681 681 681 685 692 703 709 716 726 732 734 733 735 739 742 744 743 738 727 716 705 690 672 661 652 641 630 622 615 606 596 590 585 581 580 576 573 571 570 571 571 571 570 571 574 577 580 585 590 597 605 613 624 634 642 649 657 665 670 675 676 674 667 658 650 645 642 640 638 634 631 629 628 628 631 636 642 648 654 661 669 675 681 689 700 713 725 735 740 743 744 741 737 729 722 715 711 710 710 709 709 710 712 715 718 723 729 737 743 748 753 755 758 762 766 766 761 754 751 751 748 746 745 744 741 739 736 737 742 741 731 696 627 603 585 562 556 535 521 505 493 481 474 463 449 429 415 403 393 394 397 399 399 398 398 399 399 399 398 396 393 390 390 390 391 392 393 394 396 397 398 398 398 398 398 398 397 397 397 396 396 396 397 397 397 397 397 396 395 394 394 394 394 394 393 392 390 390 390 390 390 390 390 391 391 391 391 392 393 394 395 396 398 399 401 402 403 404 405 405 404 402 402 401 401 402 403 404 406 408 413 418 422 425 428 430 431 432 434 435 435 436 436 435 435 435 439 443 446 448 449 450 453 458 464 472 483 491 497 504 512 527 545 560 574 589 604 619 633 645 657 672 685 695 700 702 704 709 714 716 717 718 717 714 705 691 674 660 649 636 624 614 611 606 599 592 583 571 561 552 546 537 526 521 523 525 528 527 525 523 521 521 520 520 517 514 512 510 509 508 507 507 507 505 501 497 496 496 499 505 509 513 516 516 516 517 518 519 518 518 518 516 515 512 512 512 513 514 516 518 521 523 526 530 534 539 548 559 571 579 583 584 583 580 578 576 571 566 559 556 553 549 547 547 545 543 540 536 533 532 530 528 523 514 506 503 501 499 496 493 490 488 486 484 484 484 483 481 481 481 481 481 481 480 480 479 478 478 477 477 478 479 480 482 483 485 486 487 488 490 492 494 496 500 503 503 502 500 499 498 499 501 502 502 503 505 507 507 507 507 507 507
756 754 750 748 747 746 746 747 749 751 755 759 758 757 756 756 755 755 755 756 756 757 759 760 761 761 762 765 769 770 769 768 767 765 762 761 760 760 760 760 758 757 755 754 753 754 754 753 753 752 752 752 752 751 752 752 752 752 753 755 757 757 756 755 754 753 753 753 753 754 754 755 753 748 744 742 740 739 736 731 730 728 726 725 721 721 724 729 736 740 743 746 750 753 757 760 764 768 772 776 780 785 791 796 800 802 803 802 800 796 791 788 786 784 783 781 778 773 769 765 762 761 761 760 760 760 759 759 761 760 759 756 752 749 747 745 744 744 745 744 744 745 747 746 744 741 739 736 734 733 728 724 718 715 718 720 721 722 720 719 721 723 724 724 725 726 726 726 726 726 728 731 732 732 730 728 727 728 730 734 739 743 747 750 752 754 758 762 768 771 772 773 771 767 765 759 756 741 728 715 708 701 684 654 635 626 609 588 570 560 545 531 524 522 519 515 511 507 493 491 489 487 485 483 479 477 482 488 493 498 503 508 517 525 529 533 537 541 546 550 550 551 552 553 554 555 558 560 560 560 560 561 563 564 566 570 572 574 577 582 591 605 621 633 646 657 668 678 686 689 692 694 695 696 696 698 699 696 693 689 684 679 674 667 661 659 659 660 660 660 658 658 660 662 666 667 667 666 667 668 670 671 672 672 673 675 678 679 682 686 694 705 714 721 724 726 729 733 735 736 736 732 725 712 698 681 669 660 649 636 627 621 611 600 594 588 584 581 579 576 575 573 573 574 576 577 575 576 580 583 587 593 599 607 617 627 636 645 653 661 669 676 682 686 686 683 679 673 660 650 647 645 644 642 638 635 633 630 631 635 644 650 655 663 672 679 685 692 700 713 727 736 743 745 743 739 733 728 722 714 709 709 709 709 710 711 713 715 718 721 725 735 744 750 753 756 760 765 770 769 766 754 748 745 744 743 742 741 736 730 730 736 740 741 729 679 620 604 589 564 556 537 519 502 490 480 467 451 436 416 401 397 394 395 396 397 396 396 397 398 397 396 395 394 392 390 389 391 391 392 393 395 397 398 399 399 399 399 398 397 397 397 396 396 396 396 396 396 396 396 395 394 393 393 393 393 393 392 392 391 391 390 389 389 389 390 391 391 392 393 393 395 396 397 398 399 400 402 403 403 403 404 404 404 403 402 401 401 402 404 405 406 407 410 412 415 419 423 425 427 429 431 433 435 436 437 438 437 437 438 439 442 445 447 450 451 454 462 471 479 489 496 501 507 516 531 547 563 576 593 612 628 643 656 667 678 692 704 709 712 713 712 712 713 715 715 712 704 692 674 654 643 630 624 613 605 598 595 588 581 572 560 550 543 535 526 523 520 521 523 523 522 520 518 518 518 518 517 515 513 511 510 509 508 508 507 505 503 501 499 499 499 501 504 507 511 514 515 516 516 516 514 513 511 510 511 509 509 510 511 511 513 515 518 521 523 523 524 526 531 540 551 561 568 573 574 571 569 568 566 563 559 557 554 548 544 542 541 542 541 536 532 530 527 527 526 523 515 510 505 502 500 498 496 493 490 487 486 485 484 483 481 481 481 481 481 481 481 480 480 479 479 478 478 479 480 480 480 480 482 483 484 485 487 489 491 493 496 499 499 499 498 496 496 498 499 501 501 501 503 505 505 505 506 507 506
764 763 761 759 756 753 750 748 750 754 759 762 761 758 757 757 756 756 755 756 756 757 757 758 757 756 757 759 762 765 765 765 764 763 762 761 761 761 760 759 758 757 756 755 754 753 753 753 753 753 753 752 752 752 752 753 752 752 753 754 755 755 755 754 753 752 752 752 751 750 751 752 752 750 746 744 744 743 741 739 735 732 729 726 723 724 728 734 739 743 744 747 750 755 759 763 766 770 775 781 786 790 794 798 802 803 803 802 799 795 791 788 786 786 786 785 783 780 775 770 767 766 768 769 769 770 768 768 767 767 765 762 758 755 751 749 747 745 744 744 744 746 748 748 747 745 744 743 739 737 733 725 721 720 721 723 724 724 724 723 724 726 727 729 731 732 733 731 728 727 729 731 734 733 730 726 725 728 731 732 736 741 745 749 750 752 756 762 766 769 769 770 770 769 765 761 748 736 715 702 697 690 672 639 626 615 601 576 559 550 541 536 532 529 527 523 523 512 508 496 490 488 487 485 481 480 484 490 495 499 502 509 518 524 528 530 534 538 542 545 548 549 550 551 553 556 558 559 561 561 562 564 565 567 569 571 574 576 579 588 600 613 625 639 651 658 667 676 684 688 690 692 694 694 694 694 695 694 690 686 682 679 674 669 664 660 660 661 662 663 665 665 664 665 667 668 666 664 663 663 664 665 666 667 669 671 673 674 675 678 686 699 709 714 720 723 724 725 725 724 722 720 717 707 689 677 668 659 648 636 625 619 611 600 592 587 582 579 578 578 578 578 578 579 581 580 580 580 583 588 592 598 607 616 626 637 645 654 663 673 683 692 697 698 696 692 686 680 671 660 652 650 649 648 646 643 641 638 635 637 642 647 653 662 672 680 686 693 702 714 727 738 742 741 736 731 726 723 720 716 712 709 710 711 713 713 714 716 720 724 730 737 741 746 751 755 761 765 768 767 760 752 745 742 740 740 739 737 731 728 726 728 736 735 725 654 607 596 588 564 545 527 511 501 486 472 459 446 426 405 398 396 395 395 396 396 397 397 398 397 396 394 393 392 391 389 390 391 392 393 395 396 397 398 399 399 399 399 399 398 397 397 397 397 397 397 396 396 396 396 394 392 392 392 392 392 391 390 390 390 390 390 390 390 390 391 392 392 392 393 396 397 399 399 402 404 405 405 404 404 404 403 403 403 402 401 400 401 403 405 405 405 406 411 413 417 420 422 423 425 428 430 432 434 436 437 437 437 438 439 440 443 446 448 450 453 459 467 475 483 491 499 504 510 520 532 549 565 578 593 612 630 645 657 668 681 695 706 712 716 717 713 711 711 711 711 707 695 682 665 649 637 629 619 609 600 594 588 581 572 563 554 544 536 529 521 519 521 520 521 522 520 516 515 515 515 514 513 511 510 509 507 507 506 506 505 504 502 500 499 499 499 501 502 505 509 512 513 513 513 510 508 507 507 507 508 508 508 509 510 512 514 517 520 523 524 523 523 524 528 534 545 555 560 561 560 556 556 558 556 557 554 551 547 544 540 538 536 536 536 534 529 526 523 521 520 520 517 513 509 506 502 499 497 493 489 488 487 486 485 483 482 481 480 480 480 480 480 480 480 480 479 479 479 479 479 480 479 477 477 477 477 477 477 485 487 489 491 494 495 495 494 492 492 494 495 496 498 499 501 503 503 504 505 505 506
772 772 772 769 766 763 759 758 759 762 766 765 762 758 757 757 756 756 755 756 756 757 757 757 756 756 756 757 760 762 763 762 762 761 761 761 761 760 760 759 759 758 757 755 753 753 753 753 753 753 752 752 751 752 752 753 753 753 754 754 754 754 754 753 753 753 752 752 751 751 749 751 753 752 749 747 745 744 742 740 738 735 732 730 727 727 730 737 744 749 750 751 754 758 763 765 766 770 777 784 790 794 797 800 801 802 803 803 799 795 793 791 790 789 787 785 784 781 779 778 776 775 776 777 778 777 776 775 775 771 768 765 763 758 754 752 751 749 746 744 744 745 748 747 746 745 744 743 741 739 736 729 726 725 726 727 727 727 729 729 731 733 734 735 736 736 734 733 731 731 730 731 730 731 729 727 727 730 733 734 732 737 742 746 749 751 756 759 761 764 765 767 768 766 760 748 732 715 703 685 677 657 648 625 617 608 585 560 550 541 543 542 537 536 530 527 520 515 508 503 496 494 494 491 486 483 484 490 497 501 506 513 519 524 527 530 533 536 539 541 544 546 548 550 552 554 557 559 561 563 564 565 567 569 571 572 575 582 589 596 609 624 636 645 651 658 666 675 682 687 690 692 692 692 690 689 689 687 685 683 681 677 674 671 668 665 664 664 664 665 667 670 673 673 674 673 671 668 667 666 665 666 667 668 669 671 671 673 678 686 695 703 709 711 715 719 720 717 715 712 711 708 702 694 686 677 665 655 646 637 626 615 606 602 596 593 586 581 581 581 582 582 582 582 582 583 585 588 591 594 597 603 612 622 631 642 654 663 672 685 694 702 708 710 709 702 694 687 679 669 660 655 653 652 650 648 645 643 641 641 644 648 652 659 669 678 685 692 703 717 731 741 743 741 736 729 723 719 716 714 710 709 711 713 714 715 716 718 723 727 732 736 738 742 745 750 755 760 762 760 756 750 745 742 742 741 739 736 733 731 728 724 718 712 650 611 600 588 579 543 507 501 499 491 477 465 453 442 419 406 402 399 397 396 397 398 399 399 399 398 397 396 395 394 392 391 392 393 395 396 397 397 398 399 399 398 399 399 399 399 398 398 398 398 398 398 397 396 396 395 393 392 391 392 391 390 390 390 390 390 390 391 391 391 391 392 393 394 395 396 398 400 401 403 405 408 408 406 405 405 404 403 402 402 401 401 401 401 403 404 405 405 408 412 419 423 426 426 425 425 427 430 432 434 436 436 437 438 440 441 441 443 447 450 453 456 463 471 480 488 496 503 509 515 523 534 546 561 577 593 610 629 646 658 670 683 696 706 713 715 716 714 710 709 709 708 701 685 672 658 645 637 625 616 604 598 590 584 575 565 557 548 538 530 522 521 522 522 521 521 520 519 516 514 513 512 510 509 508 507 505 504 504 504 504 503 503 501 500 498 498 500 501 502 502 505 506 507 510 509 507 505 505 505 505 505 507 508 509 511 513 515 518 521 523 524 524 524 525 526 528 534 540 544 546 545 544 543 545 549 550 548 545 545 544 543 540 537 536 536 533 529 525 521 517 517 518 518 516 512 508 504 500 496 492 489 488 487 487 485 484 483 483 482 481 479 479 479 480 480 480 480 480 479 479 479 479 477 477 477 477 477 477 477 477 477 477 488 491 491 491 488 487 488 489 489 492 494 496 497 500 502 502 503 505 505
780 780 779 778 775 771 770 770 770 771 770 766 762 758 756 755 756 756 756 756 757 757 757 757 757 757 757 757 759 761 762 762 761 761 761 759 759 759 759 759 759 758 756 755 754 754 755 756 755 753 752 752 752 752 753 753 753 753 754 755 754 754 754 753 753 752 752 752 751 751 752 752 753 752 751 748 746 744 742 739 736 735 733 731 730 729 731 737 745 752 756 760 763 765 767 768 769 773 780 788 795 799 801 802 803 805 806 807 804 799 796 795 795 793 790 787 785 784 783 783 783 782 781 782 783 781 780 779 778 776 773 769 765 761 757 755 753 752 750 748 748 751 751 749 746 743 742 742 741 740 737 733 732 734 733 733 733 733 733 736 738 738 739 739 738 736 736 736 736 737 735 732 730 730 731 730 730 732 736 736 736 736 739 745 749 751 754 758 758 760 763 764 764 759 750 729 709 703 692 666 653 637 617 611 603 586 567 553 545 542 544 543 541 537 532 524 518 517 513 505 501 497 500 492 485 482 484 491 498 506 513 518 523 527 532 535 537 537 538 540 543 546 549 550 552 554 557 559 561 563 564 566 568 571 571 572 578 586 594 601 616 631 641 648 654 662 671 678 682 685 686 686 687 686 685 683 680 678 679 678 678 675 673 672 670 669 668 668 667 668 670 675 678 681 682 683 683 682 681 678 677 676 677 679 679 678 676 676 683 690 698 705 710 712 714 716 716 714 708 705 700 693 689 685 680 670 660 650 641 633 621 610 604 599 597 594 590 587 585 584 584 585 586 586 585 586 588 593 598 600 604 612 620 628 640 653 667 678 687 696 703 708 713 717 715 710 702 694 688 680 671 663 658 654 653 652 651 649 647 646 648 650 654 661 669 677 685 693 702 715 729 737 740 740 736 731 724 717 714 713 711 710 710 713 715 716 717 724 731 736 740 741 741 740 742 746 750 751 752 750 748 746 743 744 744 747 744 742 739 737 733 723 707 677 617 588 582 575 554 510 490 485 485 479 469 458 450 440 423 408 401 398 396 396 398 398 399 398 398 398 398 399 398 396 394 393 395 397 399 399 399 399 399 400 400 400 400 400 400 399 399 398 398 399 399 398 397 396 394 393 393 392 392 391 390 390 389 390 390 390 391 391 391 392 392 392 393 397 400 401 402 402 403 404 406 406 406 406 404 404 404 403 402 401 400 400 400 401 402 403 406 410 414 419 426 431 435 434 432 429 431 433 435 438 437 437 438 440 442 444 444 445 448 452 457 461 466 474 483 490 498 508 518 525 534 543 551 561 574 591 609 626 641 656 670 682 695 704 709 712 714 713 711 709 706 703 693 674 660 649 635 624 616 603 596 590 585 579 571 561 551 542 531 523 520 520 521 523 521 520 519 519 516 514 513 511 509 508 507 506 503 501 501 502 502 501 500 500 499 498 499 501 503 503 503 504 505 508 511 513 514 514 514 513 510 507 508 510 511 512 513 516 518 522 524 525 525 526 528 529 529 529 532 532 532 529 528 528 530 536 542 544 544 545 546 546 544 543 541 539 536 532 528 523 517 515 515 515 514 512 508 505 501 497 493 491 489 488 486 485 485 485 486 485 483 481 480 481 480 481 481 481 481 480 477 477 477 477 477 477 477 477 477 477 477 477 477 477 477 488 486 484 483 484 485 485 486 488 491 493 495 498 500 502 503 505
782 782 780 778 776 774 775 774 774 772 769 765 761 758 756 755 755 756 757 757 757 757 758 758 758 758 758 758 759 762 763 763 762 762 762 761 759 759 760 760 759 758 756 755 755 757 759 759 757 754 753 753 753 754 754 754 753 753 754 755 755 755 756 755 754 753 752 751 750 751 752 753 754 754 752 750 747 745 742 738 736 734 734 734 733 734 737 743 749 755 760 764 768 772 775 776 776 779 786 793 798 801 804 804 805 807 809 811 810 807 803 801 799 797 796 794 792 790 788 788 789 789 791 791 789 786 783 782 782 781 777 774 770 768 764 761 758 756 753 753 754 758 757 755 748 743 741 740 740 739 738 736 737 738 738 736 736 736 736 738 741 742 741 741 739 738 738 738 739 737 736 734 732 734 734 732 730 730 734 737 738 739 742 749 751 755 756 757 755 757 759 760 757 750 727 708 697 686 662 650 636 621 606 593 575 567 556 548 544 541 543 542 543 539 532 521 520 521 518 512 510 509 504 494 488 484 486 493 501 511 517 523 528 533 537 540 540 539 538 539 543 547 549 550 552 554 557 560 562 563 564 566 568 569 571 574 580 588 598 611 624 635 644 650 659 671 678 679 680 681 681 680 680 680 679 677 674 672 671 674 675 675 674 673 672 671 671 671 672 672 674 680 686 687 689 689 688 688 686 685 683 682 684 686 686 684 681 680 685 691 698 703 710 714 716 717 716 714 709 702 693 686 681 677 673 666 658 647 636 629 617 606 602 599 596 593 591 589 587 586 586 588 588 587 586 586 589 595 600 605 612 622 631 643 654 667 678 687 696 703 708 713 717 721 723 719 711 702 695 688 681 674 668 665 661 658 657 654 652 650 651 655 660 668 677 684 691 700 708 718 729 733 734 734 733 730 726 718 713 711 710 708 709 712 715 719 727 734 742 748 753 753 748 744 743 743 745 743 738 736 735 736 739 741 742 741 742 742 740 737 732 721 699 643 590 570 565 548 531 508 489 479 476 470 461 452 447 439 421 406 401 398 397 397 397 397 396 396 396 396 397 399 400 397 395 396 397 399 400 400 400 400 400 401 401 401 401 400 399 399 398 398 398 397 397 396 395 393 392 392 392 392 392 392 391 390 390 390 390 390 390 391 392 393 394 396 398 401 402 403 402 403 403 404 404 404 405 404 403 402 402 403 402 401 400 400 401 402 404 407 413 419 424 430 435 440 442 443 441 439 437 437 439 439 438 437 440 444 446 447 447 448 449 454 459 465 471 478 485 494 504 515 525 536 546 557 564 571 583 596 614 633 648 660 673 686 696 703 709 711 712 711 709 705 700 693 676 665 655 639 624 613 603 594 589 585 581 576 568 558 546 536 526 521 519 517 518 518 518 515 515 514 515 514 513 511 509 507 506 503 501 500 500 500 499 499 499 499 499 499 500 502 503 505 507 508 510 514 517 519 519 520 521 521 518 516 514 513 513 513 514 517 521 524 526 527 527 528 530 531 532 531 531 529 527 525 523 524 526 531 536 540 544 546 545 545 544 543 541 540 537 534 531 525 518 515 514 514 512 511 508 505 502 499 494 491 489 487 486 485 485 486 487 487 486 484 483 481 481 481 481 481 481 477 477 477 477 477 477 477 477 477 477 477 477 477 477 477 477 477 477 477 477 477 477 477 477 483 485 487 489 492 494 497 501 504
778 778 777 775 772 770 770 771 771 769 765 762 760 759 757 756 755 756 757 757 758 758 758 758 759 759 759 759 760 763 764 764 763 763 763 762 761 760 761 761 760 758 755 754 754 756 758 759 757 755 754 755 755 755 754 754 753 753 753 754 755 756 757 757 756 754 752 750 750 749 750 752 754 755 756 753 750 746 743 740 738 736 736 737 737 741 746 753 757 762 765 768 771 776 780 782 783 786 790 794 800 804 805 806 807 807 809 812 814 814 812 809 807 805 803 800 798 796 795 796 796 798 797 796 796 795 792 790 788 784 780 778 776 775 770 764 761 758 757 758 760 761 762 759 753 747 743 740 739 739 739 739 740 741 740 740 739 737 737 738 739 741 741 741 740 739 739 739 739 737 735 735 736 737 738 735 731 730 732 733 737 740 744 748 752 754 756 754 752 753 754 754 747 736 709 691 675 653 644 639 625 609 594 575 568 556 548 542 539 538 536 537 536 534 524 516 516 518 520 515 514 512 506 497 491 488 488 496 504 513 521 526 531 536 540 542 543 541 540 541 543 545 547 550 552 554 558 561 562 562 563 565 567 570 573 577 581 590 602 614 626 637 645 654 665 674 678 677 677 676 674 674 674 675 674 674 673 673 674 674 674 674 675 676 676 676 675 674 676 676 680 684 690 692 692 689 686 686 687 686 685 686 689 691 691 688 683 680 682 689 697 704 709 715 718 719 713 709 705 700 688 677 671 667 664 662 656 648 637 624 615 606 602 600 597 594 592 589 587 587 588 590 591 590 588 590 595 601 606 612 618 630 644 658 671 680 689 695 701 707 711 714 718 723 727 726 722 714 704 694 686 682 678 674 670 666 663 659 656 654 653 657 664 671 677 684 694 703 711 720 727 729 728 726 726 724 717 712 711 709 709 710 712 715 719 727 736 743 750 757 760 761 760 753 746 742 738 734 731 729 728 730 731 734 733 731 729 729 730 725 719 710 692 630 576 562 551 538 523 508 494 476 468 462 453 447 443 429 412 403 399 399 398 397 396 395 394 394 394 396 398 400 399 397 396 396 397 398 398 399 399 400 401 402 401 401 400 399 398 397 397 397 397 397 396 394 393 392 391 391 391 391 392 392 392 392 392 391 389 388 389 391 393 396 398 400 401 401 401 401 402 402 403 403 404 404 404 403 402 401 401 401 402 402 401 400 401 402 405 410 417 425 429 435 441 444 446 447 446 444 442 440 439 438 437 439 444 449 451 450 450 451 453 456 460 465 473 483 492 502 512 522 532 542 554 566 578 587 596 609 625 640 654 665 678 691 698 704 709 711 709 708 701 696 692 681 667 658 644 629 614 606 597 588 584 581 576 571 566 551 539 528 520 518 517 517 517 516 514 513 512 513 513 513 512 511 509 508 505 503 501 500 500 498 498 498 498 499 500 500 501 504 507 508 509 510 513 518 521 523 523 524 525 526 525 523 519 518 518 517 517 519 522 525 527 528 528 530 532 534 534 532 529 526 525 523 523 523 524 527 530 533 538 541 542 539 540 539 537 535 535 534 531 527 522 517 514 512 511 510 509 506 502 499 495 491 489 488 487 487 487 488 488 488 487 485 483 481 480 480 480 481 480 480 477 477 477 477 477 477 477 477 477 477 477 477 477 477 477 477 477 477 477 477 477 477 477 477 477 482 485 489 491 493 494 497
772 772 770 769 767 764 764 764 765 764 761 760 760 759 758 757 756 756 757 757 758 758 758 759 760 761 761 761 763 764 764 763 762 762 763 763 761 761 762 762 762 760 757 754 753 754 756 757 756 755 755 755 755 754 754 754 754 754 753 755 755 756 757 757 756 755 754 752 749 748 748 750 752 755 756 755 751 747 744 741 739 737 738 739 741 745 751 756 761 763 766 769 773 778 782 785 787 789 793 796 801 804 806 808 809 809 810 812 814 816 814 813 811 809 807 804 802 801 802 802 801 799 799 798 799 799 798 796 792 787 784 782 782 780 775 767 763 761 761 762 763 763 764 762 758 752 747 743 741 740 740 740 740 740 741 740 740 740 739 738 738 739 740 740 739 739 738 738 737 735 734 735 736 737 737 736 736 734 734 734 737 741 745 748 750 751 755 752 748 745 747 742 734 717 692 667 650 640 633 628 614 595 584 577 568 557 545 535 534 531 529 525 526 521 517 512 512 514 515 511 509 507 503 495 491 490 493 499 508 516 524 528 534 539 542 544 544 543 542 543 544 544 547 549 551 554 557 560 562 562 563 565 568 571 575 577 581 587 599 611 620 631 645 658 669 675 677 676 674 671 670 669 671 672 674 673 673 674 674 675 674 675 677 679 680 679 677 676 676 677 680 686 690 692 690 687 685 686 686 688 690 693 696 697 696 692 688 683 682 685 694 703 707 709 712 711 705 698 695 689 679 668 664 660 660 658 655 648 634 617 610 606 603 600 597 594 591 588 586 587 590 591 592 593 594 599 604 609 614 621 628 639 649 662 675 685 691 696 701 705 709 713 719 725 729 731 729 722 713 703 694 688 685 682 679 675 671 667 662 660 660 661 666 673 677 680 688 699 708 714 719 723 722 720 718 717 714 712 711 710 711 714 717 722 727 734 742 750 755 760 763 762 760 758 752 746 742 737 732 729 727 727 727 726 723 719 717 716 711 705 699 692 650 589 561 551 542 531 516 502 484 470 464 458 450 444 437 419 402 397 397 398 399 398 396 394 393 393 394 396 398 398 396 395 395 397 397 397 398 398 398 399 400 400 400 399 399 398 397 397 397 397 397 396 395 393 393 392 392 391 391 391 391 392 392 392 392 391 390 389 390 394 397 399 401 401 401 401 400 400 401 401 402 403 404 404 404 403 401 399 399 400 401 401 401 401 401 402 406 414 424 429 434 439 444 446 449 450 448 447 446 444 441 438 439 441 447 453 455 456 455 455 457 459 463 468 477 489 497 505 514 525 538 548 561 576 590 601 613 626 637 649 661 674 685 692 698 703 705 705 703 696 690 686 682 672 658 650 633 616 608 601 595 589 582 574 570 565 558 539 529 521 516 515 517 518 518 517 515 513 512 512 512 511 510 509 509 508 506 504 502 501 500 499 498 498 498 499 500 501 503 506 509 510 510 512 513 518 523 525 526 527 529 530 530 527 525 522 520 520 521 521 523 526 527 528 530 532 533 535 533 532 529 526 525 524 525 525 525 525 526 527 530 533 533 533 531 532 530 531 530 529 527 524 521 517 514 512 510 509 508 505 502 497 493 492 490 490 489 489 489 488 488 488 487 486 484 482 480 479 479 480 481 481 480 479 478 477 477 477 477 477 477 477 477 477 477 477 477 477 477 477 477 477 477 477 477 477 477 477 482 485 488 488 489 491
764 762 759 761 760 761 759 759 759 758 758 758 759 759 758 757 756 756 756 757 758 759 760 761 762 763 764 765 765 764 764 763 763 764 765 765 764 762 762 762 762 761 758 756 755 755 756 756 756 755 755 755 754 753 753 754 754 754 755 755 755 756 756 755 754 754 753 750 749 748 748 748 750 753 754 754 751 748 745 742 740 738 738 740 743 748 754 759 763 767 770 772 776 781 786 789 791 794 795 799 801 803 806 808 810 812 813 814 815 815 814 812 810 807 806 806 805 805 804 802 800 798 797 796 796 796 797 796 794 790 785 783 781 779 775 769 766 763 763 762 763 762 762 761 760 757 753 748 745 742 740 739 739 739 739 739 740 741 740 739 740 740 740 740 739 738 738 738 737 736 735 735 736 736 737 736 738 740 738 737 739 743 745 748 747 746 747 747 743 738 732 726 710 696 672 653 641 631 624 615 598 587 580 574 568 560 546 536 531 528 525 523 520 518 516 511 510 509 509 509 503 502 496 493 490 493 498 507 514 521 529 536 540 545 547 546 545 544 543 543 544 545 546 548 550 553 557 560 561 562 565 567 570 572 574 576 581 587 597 609 619 631 646 658 669 678 680 677 673 670 669 670 672 674 676 676 676 676 676 676 677 679 682 686 686 685 683 679 678 678 680 686 689 690 690 689 689 691 693 693 695 698 701 703 702 699 694 688 683 682 688 693 696 697 696 697 692 688 682 675 668 664 664 660 657 657 655 648 634 622 612 607 602 600 597 593 589 586 586 587 590 594 599 602 606 609 613 618 622 626 632 639 648 659 671 683 690 694 699 704 708 714 721 727 730 732 731 727 721 713 705 698 693 690 687 682 678 671 668 668 669 673 676 679 680 681 686 696 703 709 714 717 716 714 713 713 711 710 708 708 708 714 721 726 731 739 748 755 761 764 766 763 759 755 752 749 744 741 735 728 725 723 722 717 713 708 706 701 695 690 677 640 607 589 568 554 543 531 514 493 480 473 467 460 450 442 424 402 397 397 399 400 401 400 398 395 393 394 394 395 397 396 394 394 397 398 399 399 399 398 397 397 397 398 398 399 399 398 398 398 398 398 397 396 395 394 393 393 393 393 393 393 393 393 392 392 392 393 393 395 397 399 401 401 401 401 401 401 401 401 401 402 403 404 404 405 404 402 401 400 400 401 401 402 402 402 402 404 409 420 432 441 445 448 452 454 455 454 452 450 449 447 443 440 440 444 450 454 457 458 458 457 458 460 465 472 481 490 500 509 520 532 544 557 571 584 600 617 628 634 643 656 669 681 690 694 697 698 699 696 693 687 680 675 671 660 649 640 625 613 605 597 595 591 582 575 567 561 551 535 524 520 516 516 519 519 518 517 514 512 512 511 509 508 507 505 505 505 505 504 502 502 501 500 499 498 498 499 499 499 503 507 509 510 512 514 517 520 523 525 527 528 530 531 532 531 529 526 523 521 522 524 524 525 526 527 528 529 531 531 530 529 527 526 526 526 526 526 526 525 525 525 526 526 526 525 527 526 526 525 524 523 521 519 518 515 512 510 508 508 506 503 500 496 494 492 491 490 490 490 489 489 488 488 488 487 485 483 480 479 479 481 482 482 482 480 478 478 477 477 477 477 477 477 477 477 477 477 477 477 477 477 477 477 477 477 477 477 477 477 477 477 483 485 486 487
763 760 760 761 762 761 761 760 757 756 754 757 757 758 759 758 757 756 756 757 758 760 762 764 765 766 767 768 767 766 767 768 768 767 769 769 768 765 763 762 763 761 760 759 759 760 759 758 757 757 756 755 754 754 755 755 754 755 755 755 756 756 755 756 754 751 749 748 747 747 747 749 750 751 752 752 750 748 747 744 742 740 740 742 747 752 758 763 767 770 773 777 782 786 790 793 796 797 800 802 804 807 809 812 815 817 818 817 817 815 814 812 809 807 805 805 804 802 799 797 797 796 795 793 793 793 793 794 794 792 787 782 777 774 771 769 767 766 765 765 762 760 759 760 762 762 759 755 750 746 744 742 739 738 738 739 741 743 742 741 741 742 742 742 740 740 740 741 741 739 738 737 737 737 737 738 740 740 740 739 740 742 744 745 744 740 741 741 739 733 722 708 698 681 663 648 635 624 612 602 593 585 580 572 565 558 544 534 530 527 526 524 522 519 517 512 509 505 503 501 497 494 491 491 493 497 503 514 522 528 532 537 544 549 551 549 547 545 543 543 542 543 547 550 552 554 557 558 560 562 564 567 569 571 573 575 582 593 602 610 619 631 645 659 669 676 679 676 673 670 669 672 674 678 679 680 680 680 679 679 681 684 689 691 694 695 693 688 684 684 686 689 691 693 696 698 699 701 702 703 703 707 711 713 715 709 704 695 687 683 683 686 687 686 685 683 680 675 667 662 660 660 660 659 658 656 654 650 641 629 619 613 606 602 597 595 590 586 588 590 594 599 605 612 614 615 619 622 625 628 635 642 650 660 671 680 690 697 701 707 714 721 728 731 733 733 731 729 724 718 710 704 697 693 691 686 680 676 673 674 677 680 684 684 684 686 688 692 698 703 707 710 712 712 712 711 709 707 706 707 711 717 726 732 738 744 753 759 762 766 765 763 756 751 749 747 743 739 732 723 716 715 710 705 699 696 694 690 685 675 652 620 601 587 572 561 549 533 515 491 477 473 467 455 445 432 414 401 398 398 400 401 402 402 400 398 396 395 396 397 396 394 393 394 397 399 400 400 400 399 397 396 396 397 398 398 399 399 399 398 397 397 396 395 394 393 393 394 394 394 394 394 394 394 393 393 393 393 395 397 400 401 402 402 401 401 401 401 402 402 402 402 403 405 405 405 404 403 403 402 402 402 402 403 402 402 404 406 415 429 441 448 451 454 457 458 458 457 455 453 452 450 446 443 443 447 452 456 458 459 459 460 460 465 470 477 484 491 501 512 525 537 547 559 577 596 611 625 638 648 658 669 681 688 692 695 695 694 691 686 681 676 670 664 658 650 642 632 622 611 601 594 589 588 582 575 567 560 548 532 524 522 521 522 522 521 519 517 514 511 511 510 509 507 505 503 502 502 502 502 501 501 501 500 499 499 499 499 500 501 504 507 509 511 513 515 516 519 521 524 525 527 528 528 529 529 529 529 526 525 524 525 526 525 524 526 526 527 527 527 527 526 526 525 525 526 527 527 526 525 524 523 523 523 523 523 524 524 523 522 520 518 518 517 516 514 511 509 508 507 505 503 500 497 495 493 491 491 490 490 490 489 490 490 490 489 487 485 483 482 482 483 484 484 482 481 479 478 478 477 477 477 477 477 477 477 477 477 477 477 477 477 477 477 477 477 477 477 477 477 477 477 477 484 485 485
764 763 762 763 764 765 766 764 761 758 758 758 758 758 758 759 758 757 755 756 758 761 763 765 766 768 770 773 773 775 777 780 780 782 781 781 779 775 772 771 770 769 766 764 763 763 762 759 761 761 759 757 756 757 758 758 756 755 755 756 759 762 763 762 760 756 752 750 749 748 747 748 749 750 750 749 748 746 746 744 741 741 741 744 748 754 760 764 767 769 772 777 783 788 792 797 801 803 803 805 808 811 814 819 822 823 821 820 817 815 813 811 809 807 805 803 801 799 798 796 795 795 795 795 794 793 792 791 791 789 784 778 772 771 770 768 766 767 767 765 763 759 757 758 760 762 763 760 755 751 748 744 741 740 739 740 743 744 745 744 744 744 745 745 744 743 744 744 745 744 743 741 738 738 739 740 740 741 741 741 740 739 741 742 741 741 739 740 737 729 716 702 690 677 658 639 626 614 604 600 589 582 577 572 563 551 540 529 525 525 525 524 521 520 518 513 506 502 498 494 492 490 490 493 497 503 511 522 530 533 536 542 547 550 552 552 549 546 544 542 542 543 546 550 553 557 558 560 560 561 563 566 568 572 575 579 585 596 607 615 622 630 645 658 667 673 675 674 671 670 672 675 679 682 684 685 687 687 687 686 686 690 692 696 700 701 700 696 695 694 696 697 696 698 701 704 706 709 716 718 718 720 723 725 725 724 716 705 696 689 686 683 680 678 675 673 669 660 655 652 652 653 655 656 657 659 656 652 644 635 626 620 615 606 601 598 593 593 595 598 602 607 614 617 618 620 623 626 628 634 642 649 656 664 672 681 689 697 706 715 722 730 735 736 734 734 734 731 728 722 716 708 700 695 691 686 680 676 674 677 682 685 688 688 688 687 687 689 691 694 699 704 709 712 712 711 709 707 708 710 718 727 737 744 749 753 758 761 760 759 757 754 748 745 744 743 739 733 725 713 705 702 700 694 694 693 694 691 682 668 635 607 587 575 565 553 542 526 505 487 473 468 460 445 435 424 406 395 394 397 399 402 402 400 399 397 397 398 400 399 397 396 395 395 397 398 399 400 399 399 397 396 396 396 397 398 398 399 398 397 396 395 395 394 393 392 392 393 393 393 393 394 395 395 395 395 395 395 396 397 399 401 402 402 402 401 402 402 402 402 402 402 403 404 405 405 405 406 406 406 405 405 404 403 404 405 408 414 424 438 450 455 458 459 459 459 459 458 457 456 455 452 448 446 448 452 456 458 459 460 460 463 469 476 482 488 493 499 508 519 530 542 553 566 583 605 622 635 645 656 670 681 689 694 697 697 695 691 684 679 672 666 659 653 647 643 635 626 615 606 599 592 589 585 581 574 568 558 541 528 525 525 525 526 527 524 520 517 513 511 509 509 507 505 504 502 501 500 499 498 499 499 500 499 499 499 500 500 502 504 508 510 513 514 516 516 515 514 517 519 522 524 525 525 526 529 532 532 531 528 526 526 525 524 525 527 526 526 525 525 525 525 525 526 526 526 526 526 525 524 523 522 522 521 521 521 522 522 520 517 516 516 516 514 513 512 509 507 506 506 504 503 501 499 498 496 494 492 491 491 490 491 491 492 493 493 492 489 487 487 487 486 485 485 483 481 479 479 478 478 477 477 477 477 477 477 477 477 477 477 477 477 477 477 477 477 477 477 477 477 477 477 477 477 484 483
765 764 764 765 767 770 771 771 768 763 764 764 763 760 760 759 759 758 757 757 760 762 763 765 768 771 775 779 782 783 786 788 790 790 790 790 789 787 785 780 779 775 771 769 767 769 766 765 765 764 763 760 759 760 761 760 758 757 757 761 765 769 771 771 768 765 759 755 753 750 749 749 750 749 749 747 746 744 743 741 740 741 743 746 751 756 761 765 768 770 772 777 782 787 792 798 802 803 805 808 811 815 819 822 824 823 822 819 817 814 812 811 811 809 807 805 803 802 800 799 798 798 799 800 799 797 795 793 791 788 786 781 776 773 769 767 766 766 766 765 762 760 759 758 759 762 763 764 760 756 751 747 746 744 741 740 744 748 749 749 748 747 748 749 749 747 746 745 746 746 746 744 741 740 741 742 742 743 743 744 744 743 742 742 742 741 740 738 733 725 711 694 680 666 649 634 620 607 599 591 580 572 570 564 556 551 539 531 526 524 525 520 518 518 515 508 500 495 492 491 491 492 493 495 499 506 516 526 532 535 539 545 549 552 552 552 551 548 545 545 545 546 547 550 554 559 562 562 561 562 563 566 570 573 577 583 592 602 610 618 626 634 642 652 663 669 672 673 672 673 675 679 684 688 692 692 693 694 692 692 692 693 694 698 701 703 701 699 699 700 703 705 705 704 705 708 711 717 723 728 727 726 730 735 736 733 726 716 705 696 690 686 679 672 669 665 662 653 647 645 647 648 649 651 653 655 656 653 645 636 628 623 618 610 605 603 599 601 598 604 609 612 615 616 617 619 623 628 632 638 645 654 663 671 677 683 693 703 711 719 726 732 737 739 739 738 736 732 729 726 721 712 705 698 693 687 682 678 678 680 686 692 695 694 692 689 688 687 689 691 694 698 705 710 712 710 708 707 707 709 716 729 741 750 756 762 765 763 760 756 752 746 741 739 739 733 728 722 715 709 700 702 700 702 701 702 704 698 669 630 611 589 573 566 553 539 523 504 492 478 472 468 454 438 427 416 403 393 393 395 399 400 400 396 390 390 393 396 396 397 396 397 397 397 397 398 398 399 399 398 398 397 396 396 396 397 398 398 398 397 396 395 395 395 394 393 392 392 393 393 393 395 396 396 397 397 397 397 397 399 400 401 402 401 401 402 402 403 402 402 403 403 403 403 404 404 405 406 407 408 409 409 408 408 410 415 420 428 437 447 455 460 462 462 460 459 458 457 456 456 455 453 449 447 449 453 457 459 460 461 465 472 480 486 491 496 500 506 515 526 537 549 562 579 598 618 630 639 650 663 673 683 690 695 697 695 688 680 676 668 661 655 650 643 639 635 626 616 608 603 598 594 591 588 581 576 567 553 541 529 528 527 527 526 526 524 521 517 513 511 510 507 505 505 504 502 501 500 499 499 499 499 500 500 501 501 502 503 503 507 509 512 514 516 518 517 515 514 515 517 520 522 522 522 525 528 532 535 534 532 530 528 530 531 531 530 529 526 525 524 524 524 525 527 527 527 526 524 524 523 523 522 520 519 518 518 519 519 516 514 513 514 513 511 509 507 506 504 504 503 502 501 500 500 500 498 497 494 492 491 491 491 492 493 495 496 495 493 491 490 489 487 485 484 484 482 480 481 482 483 482 477 477 477 477 477 477 477 477 477 477 477 477 477 477 477 477 477 477 477 477 477 477 477 477 481
767 766 767 768 772 776 780 781 779 776 772 771 768 763 761 760 760 760 760 763 765 766 766 767 769 774 779 784 788 789 790 792 793 793 793 793 793 792 789 785 783 781 778 777 780 779 780 776 774 771 768 763 762 762 762 763 763 764 766 767 769 771 773 773 771 767 763 757 755 752 752 752 751 751 749 748 746 743 742 740 740 742 744 749 753 758 763 766 770 771 774 778 783 787 793 798 802 804 807 811 815 818 821 822 822 820 818 817 815 814 812 812 812 812 811 811 812 809 807 805 803 802 802 802 801 800 799 798 796 795 795 792 783 776 774 772 768 766 765 764 764 762 761 760 759 760 761 762 761 759 757 754 752 750 748 745 746 748 749 749 748 748 748 749 749 748 746 745 745 746 746 745 744 743 744 746 745 745 746 748 751 754 754 750 744 741 737 732 727 719 695 676 668 654 640 626 612 599 591 582 573 566 560 555 551 546 539 533 528 530 529 522 517 513 510 505 496 492 490 491 493 495 495 496 501 511 522 528 531 535 539 543 548 550 551 551 551 550 548 548 549 550 551 552 556 560 561 561 561 561 563 568 573 576 579 587 597 607 615 624 631 638 647 655 660 665 668 672 674 677 679 683 688 692 695 696 696 695 695 695 695 695 696 697 703 707 707 705 705 704 708 710 709 710 711 715 721 727 730 731 732 734 737 741 742 738 733 724 714 704 697 689 681 673 664 660 656 649 643 643 643 644 646 648 651 652 654 649 643 635 630 626 622 613 608 605 603 601 602 607 610 613 614 616 619 620 625 630 636 644 653 662 669 676 683 690 697 705 713 721 726 733 738 742 744 743 740 735 731 727 720 712 705 700 694 689 686 685 686 688 692 696 698 698 696 694 691 689 690 693 695 699 703 708 710 709 707 705 705 710 715 727 738 748 755 761 763 763 759 755 749 742 737 734 729 722 714 712 713 711 709 710 712 711 707 709 710 685 616 600 593 573 560 550 536 525 508 495 485 480 474 463 448 434 422 413 404 396 395 396 397 399 398 393 385 385 388 391 393 394 396 397 398 397 396 396 397 398 398 398 398 397 397 396 395 396 397 398 398 397 396 396 396 396 396 394 393 393 393 393 394 395 397 397 397 398 398 398 399 399 400 401 401 401 400 401 402 403 403 403 403 403 403 403 403 403 404 404 404 406 408 409 411 413 420 427 433 440 446 454 460 464 466 465 462 459 456 455 455 454 454 453 451 450 451 455 457 459 462 467 473 479 486 493 499 503 509 518 527 535 544 553 567 582 600 620 631 640 650 660 669 675 680 686 688 687 680 673 664 657 652 647 642 636 631 624 615 610 606 601 595 592 592 588 580 576 567 562 551 545 539 534 528 525 523 520 518 516 513 512 511 509 507 507 506 504 502 500 500 501 501 501 501 502 503 505 505 504 506 507 510 513 515 517 519 518 516 514 515 517 521 523 522 521 523 529 533 535 535 535 535 536 537 535 533 532 531 528 526 525 523 523 524 526 527 526 525 524 522 522 521 521 519 517 516 516 516 516 514 512 511 511 510 507 505 504 504 503 501 500 499 498 498 499 499 498 496 494 493 492 491 491 492 493 495 495 495 493 492 491 490 487 486 485 484 483 482 483 484 484 483 477 477 477 477 477 477 477 477 477 477 477 477 477 477 477 477 477 477 477 477 477 477 477 477 477
770 770 771 773 776 780 783 784 784 782 779 775 770 764 761 761 761 763 765 766 768 770 770 771 774 780 782 788 790 792 792 793 793 793 793 794 794 792 789 786 785 784 784 786 787 788 786 784 780 774 770 765 762 761 762 762 765 767 769 773 771 772 773 772 771 767 763 759 756 756 755 754 753 752 751 750 747 744 741 741 741 745 747 750 754 760 764 769 773 776 780 784 787 789 793 798 802 806 811 814 816 818 819 819 819 817 816 815 815 815 815 815 815 814 813 814 815 815 813 810 808 806 805 804 803 802 802 801 800 797 796 794 789 783 779 775 770 768 767 767 765 763 761 760 759 757 756 756 758 759 759 758 755 750 749 748 747 746 746 746 745 746 747 748 748 747 746 745 745 744 745 746 746 747 748 749 747 745 747 752 756 758 758 755 748 743 736 728 721 708 682 660 650 640 629 617 603 590 580 572 569 563 558 554 547 542 536 532 534 535 532 524 516 511 507 503 498 495 495 497 498 499 501 504 509 517 524 528 530 531 537 543 547 549 550 550 552 552 551 550 550 550 551 554 556 559 560 560 561 562 565 571 576 578 586 597 606 613 620 628 638 648 654 657 661 663 667 671 674 677 680 684 689 694 697 698 698 698 697 697 698 700 700 703 708 713 717 717 716 716 716 715 713 715 717 721 725 728 730 733 736 739 740 739 736 734 729 723 714 705 695 688 681 673 666 658 655 648 641 636 635 638 644 647 649 650 648 646 639 634 633 632 625 616 612 610 609 607 609 612 615 618 620 622 624 627 631 636 643 651 659 666 673 681 692 701 706 711 716 724 730 734 737 740 744 744 742 738 735 732 725 714 707 702 696 691 689 691 694 697 701 703 705 703 700 696 693 693 694 697 701 702 705 708 712 711 709 707 708 709 715 722 730 739 746 753 753 756 755 751 744 737 731 725 721 713 710 712 718 718 716 715 717 716 718 718 719 688 576 572 570 555 549 538 528 516 502 492 485 479 471 459 444 432 420 409 401 399 398 396 396 397 397 394 388 386 388 391 392 394 395 396 397 396 396 396 397 398 398 397 398 397 397 396 395 395 397 399 398 397 396 395 396 396 395 395 394 393 393 393 394 396 397 397 398 398 399 399 399 400 400 401 401 401 400 400 401 403 404 404 403 402 402 402 402 402 403 403 403 403 406 410 414 420 428 437 442 446 451 457 462 466 467 466 463 460 460 459 458 457 456 455 455 455 456 458 459 460 464 469 477 485 492 498 503 508 513 522 533 539 545 556 571 589 607 623 635 643 650 655 661 666 671 675 679 674 668 662 657 652 646 641 637 632 624 615 608 605 605 600 595 592 590 588 584 579 579 575 571 560 553 542 532 524 521 517 514 513 513 512 511 510 510 509 508 505 503 502 502 503 503 503 503 505 506 507 507 508 509 510 512 513 516 518 519 520 518 515 516 519 523 525 525 524 524 529 532 535 536 537 539 541 541 538 537 533 530 528 527 525 524 522 522 523 523 523 523 521 519 518 518 518 517 515 514 513 513 512 510 508 509 509 507 505 503 502 501 500 498 497 496 495 496 496 496 495 494 492 492 491 491 491 491 492 493 493 493 492 490 490 489 487 485 485 484 483 482 482 482 482 481 477 477 477 477 477 477 477 477 477 477 477 477 477 477 477 477 477 477 477 477 477 477 477 477 477
